-186.7419,0.0741272,436.0664,0,0,1
-170.4575,0.0741272,447.6776,0,0,1
-154.1731,0.0741272,459.2887,0,0,1
-350.1162,0.0741272,380.9859,0,0,1
-292.9714,1.697941,371.8734,0,0,1
-281.7162,1.416906,388.5274,0,0,1
-283.0991,0.3943014,418.9396,0,0,1
-268.0114,0.1153774,438.2617,0,0,1
-248.3384,0.0741272,453.5553,0,0,1
-227.9829,0.0741272,468.0692,0,0,1
-207.6274,0.07412624,482.583,0,0,1
-187.2719,0.07412624,497.097,0,0,1
-166.9164,0.0741272,511.6108,0,0,1
-432.4216,0.0741272,424.6479,0,0,1
-299.0672,3.590191,375.7882,0,0,1
-286.1461,3.420093,391.9649,0,0,1
-290.9796,2.496239,426.3401,0,0,1
-323.8588,0.0741272,502.0553,0,0,1
-296.7181,0.07412624,521.407,0,0,1
-269.5774,0.0741272,540.7589,0,0,1
-242.4366,0.0741272,560.1107,0,0,1
-215.296,0.0741272,579.4625,0,0,1
-181.1991,0.8929251,570.2535,1,0,0
-574.7818,0.5246983,500.1682,0,0,1
-556.3215,0.0741272,540.9996,0,0,1
-290.224,5.539225,395.1293,0,0,1
-474.8994,0.07412624,599.0551,0,0,1
-333.1461,3.126866,512.664,0,0,1
-305.6907,3.098352,533.9912,0,0,1
-315.2924,1.575684,620.6497,0,0,1
-284.3068,1.402718,653.3646,0,0,1
-271.344,0.0741272,744.1938,0,0,1
-180.7381,3.989504,568.3606,1,0,0
-648.6471,4.551536,539.3528,0,0,1
-636.1215,4.193569,592.248,0,0,1
-437.5167,6.020783,509.4269,0,0,0
-569.4314,3.802508,687.8281,0,0,1
-337.2279,6.538837,517.3265,1,0.92,0.016
-442.5016,4.229686,725.8668,0,0,1
-383.5878,4.456624,740.0017,0,0,1
-323.8611,4.791491,741.4606,0,0,1
-280.1881,4.811135,770.1877,0,0,1
-179.9653,7.06214,565.1875,1,0,0
-653.9755,10.07413,542.1794,0,0,1
-640.6481,10.07413,595.1551,0,0,1
-436.603,10.07416,508.7179,0,0,0
-337.2279,10.07413,517.3265,1,0.92,0.016
-453.4647,10.07413,741.2423,0,0,1
-389.3049,10.07413,749.9929,0,0,1
-325.6666,10.07413,745.4818,0,0,1
-281.5552,10.07413,774.2054,0,0,1
-179.3842,10.07413,562.8016,1,0,0
-658.7146,15.69865,544.6934,0,0,1
-645.1289,16.05408,598.0327,0,0,1
-439.1389,14.147,510.6858,0,0,0
-338.2587,13.62499,518.504,1,0.92,0.016
-327.2584,15.4381,749.0272,0,0,1
-282.6651,15.41078,777.4678,0,0,1
-179.8947,13.08335,564.8977,1,0,0
-442.693,18.30605,513.4438,0,0,0
-339.857,17.22414,520.3297,1,0.92,0.016
-329.0222,20.88651,752.9554,0,0,1
-283.7714,20.81322,780.7191,0,0,1
-179.874,16.09094,564.8126,1,0,0
-447.6351,22.60176,517.2787,0,0,0
-338.5768,20.74113,518.8674,1,0.92,0.016
-285.0845,26.2999,784.5785,0,0,1
-179.6077,19.06801,563.7194,1,0,0
-337.9445,24.25859,518.1451,1,0.92,0.016
-177.7515,21.77464,556.0981,1,0,0
-283.4657,0.6258278,360.1789,0,0,1
-275.541,0.1598454,376.1208,0,0,1
-260.0704,0.0741272,387.8101,0,0,1
-243.1097,0.0741272,398.409,0,0,1
-226.149,0.0741272,409.0078,0,0,1
-209.1884,0.0741272,419.6067,0,0,1
-192.2277,0.0741272,430.2056,0,0,1
-175.267,0.0741272,440.8044,0,0,1
-158.3063,0.0741272,451.4033,0,0,1
-141.3456,0.07412815,462.0021,0,0,1
-301.6893,1.751364,371.3172,0,0,1
-284.8045,1.716378,382.9,0,0,1
-282.6501,0.922617,407.6463,0,0,1
-273.0114,0.3643599,430.1271,0,0,1
-256.8864,0.07412815,448.7598,0,0,1
-235.6855,0.0741272,462.0083,0,0,1
-214.4847,0.0741272,475.2569,0,0,1
-193.2839,0.0741272,488.5055,0,0,1
-172.083,0.07412624,501.7541,0,0,1
-143.5443,1.613045,474.2209,0,0,1
-421.1863,0.07412815,444.354,0,0,1
-288.5732,3.675735,385.6579,0,0,1
-364.6508,0.07412815,479.6835,0,0,1
-280.2492,2.481408,437.8046,0,0,1
-308.1152,0.07412624,515.0131,0,0,1
-279.8474,0.0741272,532.6779,0,0,1
-251.5797,0.07412624,550.3425,0,0,1
-223.3118,0.07412624,568.0073,0,0,1
-195.0441,0.0741272,585.6721,0,0,1
-156.1075,1.752245,544.0428,1,0,0
-575.9634,0.1625204,538.954,0,0,1
-292.1744,5.725666,388.2933,0,0,1
-419.9765,1.996724,528.2867,0,0,0
-452.9745,0.07412815,621.0223,0,0,1
-312.6654,3.259425,520.8978,0,0,1
-329.3546,1.539062,611.9011,0,0,1
-292.2002,1.582388,632.5646,0,0,1
-274.7769,0.5509605,704.2656,0,0,1
-240.9662,0.0741272,753.5082,0,0,1
-159.2604,4.195581,561.566,1,0,0
-639.7589,4.44958,577.9459,0,0,1
-296.2458,7.853053,391.2729,0,0,1
-420.6841,6.026408,528.9084,0,0,0
-352.694,6.507629,514.6501,1,0.92,0.016
-478.4996,3.969172,735.3678,0,0,1
-406.8816,4.343666,735.9624,0,0,1
-342.1947,4.705138,733.7609,0,0,1
-295.302,4.742932,758.6077,0,0,1
-194.0312,6.777557,581.9702,1,0,0
-159.2605,7.134855,561.566,1,0,0
-644.1333,10.07413,580.6196,0,0,1
-458.0945,10.0741,509.7148,0,0,0
-420.1886,10.07413,528.473,0,0,0
-352.6941,10.07413,514.6501,1,0.92,0.016
-484.2795,10.07413,742.8429,0,0,1
-410.4429,10.07413,741.6612,0,0,1
-344.1816,10.07413,737.7825,0,0,1
-296.6321,10.07413,762.1292,0,0,1
-192.3412,10.07413,575.7936,1,0,0
-159.2605,10.07413,561.566,1,0,0
-647.9583,15.78463,582.9574,0,0,1
-459.0089,14.16786,510.384,0,0,0
-428.3575,14.21968,535.6494,0,0,0
-415.2634,15.96275,749.3752,0,0,1
-346.0654,15.53007,741.5956,0,0,1
-297.8242,15.47532,765.2853,0,0,1
-191.0695,13.26321,571.1458,1,0,0
-159.2605,13.0134,561.566,1,0,0
-652.4531,21.58936,585.7047,0,0,1
-462.3009,18.33734,512.7932,0,0,0
-348.5884,21.09937,746.7026,0,0,1
-298.9538,20.93921,768.2762,0,0,1
-190.2352,16.39173,568.0965,1,0,0
-159.2604,15.95267,561.566,1,0,0
-300.1963,26.47519,771.5657,0,0,1
-189.6179,19.48333,565.8405,1,0,0
-159.2604,18.89195,561.566,1,0,0
-302.2181,32.16664,776.9187,0,0,1
-189.4538,22.5959,565.2406,1,0,0
-159.2605,21.83122,561.566,1,0,0
-279.8483,0.4636173,372.3776,0,0,1
-269.4681,0.0741272,386.9484,0,0,1
-251.9288,0.0741272,396.5595,0,0,1
-234.3895,0.0741272,406.1706,0,0,1
-216.8502,0.0741272,415.7817,0,0,1
-199.311,0.0741272,425.3929,0,0,1
-181.7716,0.0741272,435.004,0,0,1
-164.2324,0.0741272,444.6151,0,0,1
-146.6931,0.0741272,454.2262,0,0,1
-129.1538,0.0741272,463.8373,0,0,1
-288.7043,2.000268,378.5129,0,0,1
-281.1102,1.513967,396.5375,0,0,1
-279.3292,0.6002808,423.5603,0,0,1
-267.1,0.07942963,445.1097,0,0,1
-245.2629,0.07412815,457.2272,0,0,1
-223.3387,0.07412815,469.241,0,0,1
-201.4146,0.0741272,481.2549,0,0,1
-179.4905,0.0741272,493.2689,0,0,1
-157.1017,0.1596012,503.1007,0,0,1
-130.9596,1.517494,478.7159,0,0,1
-292.8065,3.884829,381.3547,0,0,1
-287.1678,3.435408,401.527,0,0,1
-285.8677,2.704969,430.0034,0,0,1
-320.6772,0.1277304,508.8891,0,0,1
-292.6171,0.07412624,526.3029,0,0,1
-263.3851,0.0741272,542.3215,0,0,1
-234.1529,0.07412624,558.34,0,0,1
-204.9208,0.0741272,574.3585,0,0,1
-166.889,1.288069,549.0574,1,0,0
-131.6816,3.489748,484.6643,0,0,1
-296.1133,5.875964,383.6457,0,0,1
-421.213,2.423526,511.9343,0,0,0
-291.9487,4.997809,435.9957,0,0,1
-324.8118,3.317137,513.8109,0,0,1
-305.6147,2.950001,545.2625,0,0,1
-308.3848,1.534638,624.4413,0,0,1
-285.467,0.7951231,679.1631,0,0,1
-255.7813,0.0741272,736.5378,0,0,1
-169.4456,3.981621,561.0624,1,0,0
-132.2131,5.602627,489.0434,0,0,1
-301.7892,7.913286,387.5778,0,0,1
-422.758,6.230252,513.2068,0,0,0
-557.8349,3.960523,698.0034,0,0,1
-335.6544,6.530333,526.7181,1,0.92,0.016
-430.6815,4.311163,727.6971,0,0,1
-365.418,4.617567,728.5209,0,0,1
-314.0414,4.707281,746.444,0,0,1
-268.8749,4.645056,778.2896,0,0,1
-168.8856,7.053628,558.4327,1,0,0
-141.0155,7.160081,561.566,1,0,0
-627.4077,10.07413,613.158,0,0,1
-421.3657,10.07409,512.0601,0,0,0
-335.6545,10.07413,526.7183,1,0.92,0.016
-434.2009,10.07413,732.8309,0,0,1
-381.3644,10.07413,757.6215,0,0,1
-315.6581,10.07413,750.2507,0,0,1
-270.3256,10.07413,782.9156,0,0,1
-168.5962,10.07413,557.0737,1,0,0
-141.0155,10.07413,561.566,1,0,0
-631.5619,15.82321,616.0361,0,0,1
-426.843,13.96714,516.5715,0,0,0
-338.7009,13.66436,530.3447,1,0.92,0.016
-438.6337,15.97703,739.2969,0,0,1
-317.0704,15.51807,753.576,0,0,1
-271.4387,15.58721,786.4647,0,0,1
-168.2129,13.0637,555.274,1,0,0
-141.0155,12.98818,561.566,1,0,0
-442.5272,18.23749,529.4899,0,0,0
-318.5616,21.03794,757.0872,0,0,1
-272.5593,21.17374,790.0383,0,0,1
-167.9574,16.02976,554.0741,1,0,0
-141.0155,15.90222,561.566,1,0,0
-446.7048,22.46994,532.9308,0,0,0
-320.8155,26.69196,762.3941,0,0,1
-273.9725,26.86247,794.5443,0,0,1
-167.8045,18.98649,553.3561,1,0,0
-141.0154,18.81627,561.566,1,0,0
-337.737,24.3763,529.1973,1,0.92,0.016
-167.7646,21.94995,553.1692,1,0,0
-139.6794,21.31849,550.5581,1,0,0
-276.6341,0.2295446,385.5671,0,0,1
-261.3086,0.07412815,396.2928,0,0,1
-243.2451,0.0741272,404.8783,0,0,1
-225.1816,0.0741272,413.4638,0,0,1
-207.1182,0.0741272,422.0493,0,0,1
-189.0547,0.0741272,430.6348,0,0,1
-170.9912,0.0741272,439.2203,0,0,1
-152.9277,0.0741272,447.8058,0,0,1
-134.8643,0.0741272,456.3913,0,0,1
-116.8008,0.0741272,464.9768,0,0,1
-282.7829,1.919243,390.3734,0,0,1
-286.7636,0.7861557,419.8455,0,0,1
-271.7719,0.4445562,436.4265,0,0,1
-255.6772,0.0741272,454.3297,0,0,1
-233.0978,0.07412815,465.0616,0,0,1
-210.5184,0.07412815,475.7935,0,0,1
-187.9391,0.07412815,486.5254,0,0,1
-165.3597,0.0741272,497.2572,0,0,1
-137.4097,1.431024,472.9827,0,0,1
-119.7452,0.3422432,511.5162,0,0,1
-286.7794,3.821852,393.4973,0,0,1
-294.4369,2.816958,426.9453,0,0,1
-334.7148,0.1552687,506.036,0,0,1
-306.5029,0.07412815,522.4396,0,0,1
-276.3972,0.07412624,536.7488,0,0,1
-246.2913,0.0741272,551.058,0,0,1
-216.1855,0.07412624,565.3672,0,0,1
-184.531,0.2610071,573.5153,1,0,0
-137.8688,3.504814,475.9748,0,0,1
-123.2782,1.216714,567.3564,1,0,0
-290.9703,5.810791,396.7731,0,0,1
-498.472,0.0741272,615.7319,0,0,1
-342.7495,3.232073,514.9214,1,0.92,0.016
-308.94,3.327546,525.7054,0,0,1
-324.7546,1.546099,616.8103,0,0,1
-287.5895,1.483375,637.9472,0,0,1
-272.6785,0.0741272,723.0507,0,0,1
-183.8303,3.588411,570.7281,1,0,0
-151.0002,4.035771,561.566,1,0,0
-123.1696,4.20113,565.6395,1,0,0
-434.1184,6.317366,508.6663,0,0,0
-573.0159,4.131184,684.7049,0,0,1
-341.8409,6.666075,513.9167,1,0.92,0.016
-466.1674,4.122957,736.4005,0,0,1
-398.1965,4.396662,738.4019,0,0,1
-334.6033,4.683558,736.8621,0,0,1
-287.4705,4.637729,764.3386,0,0,1
-182.9612,6.866223,567.2711,1,0,0
-151.0002,7.05495,561.566,1,0,0
-123.0144,7.160439,563.1877,1,0,0
-435.0778,10.07415,509.4163,0,0,0
-341.8409,10.07413,513.9167,1,0.92,0.016
-472.8278,10.07413,745.3259,0,0,1
-402.0299,10.07413,744.7487,0,0,1
-336.486,10.07413,740.8233,0,0,1
-288.8929,10.07413,768.3087,0,0,1
-182.25,10.07413,564.4421,1,0,0
-151.0002,10.07413,561.566,1,0,0
-122.907,10.07413,561.49,1,0,0
-434.1831,13.83161,508.7169,0,0,0
-342.7841,13.49565,514.9599,1,0.92,0.016
-338.2472,15.54958,744.5286,0,0,1
-290.0595,15.58691,771.5648,0,0,1
-182.8394,13.27714,566.7867,1,0,0
-151.0002,13.09331,561.566,1,0,0
-123.0023,12.98603,562.9953,1,0,0
-442.3334,17.77417,515.0877,0,0,0
-344.275,16.95975,516.6086,1,0.92,0.016
-340.4061,21.12562,749.0709,0,0,1
-291.198,21.16686,774.7427,0,0,1
-182.8165,16.4783,566.6954,1,0,0
-151.0002,16.11248,561.566,1,0,0
-123.0023,15.89794,562.9954,1,0,0
-444.8198,21.70889,517.0313,0,0,0
-343.3129,20.36135,515.5446,1,0.92,0.016
-292.4995,26.82842,778.3752,0,0,1
-182.7935,19.67762,566.6042,1,0,0
-151.0002,19.13166,561.566,1,0,0
-122.9504,18.78694,562.1754,1,0,0
-342.5353,23.74601,514.6847,1,0.92,0.016
-180.5567,22.51893,557.7068,1,0,0
-151.0002,22.15084,561.566,1,0,0
-122.5583,21.46062,555.9789,1,0,0
-269.833,0.0741272,399.1086,0,0,1
-251.239,0.0741272,406.4749,0,0,1
-232.645,0.0741272,413.8412,0,0,1
-214.051,0.0741272,421.2076,0,0,1
-195.457,0.0741272,428.5739,0,0,1
-176.863,0.0741272,435.9402,0,0,1
-158.2689,0.0741272,443.3065,0,0,1
-139.6749,0.0741272,450.6728,0,0,1
-121.0809,0.0741272,458.0391,0,0,1
-102.4868,0.0741272,465.4055,0,0,1
-291.356,1.040818,418.368,0,0,1
-275.1575,0.7815742,431.7564,0,0,1
-265.0063,0.0741272,454.8015,0,0,1
-241.7637,0.0741272,464.0094,0,0,1
-218.5212,0.0741272,473.2173,0,0,1
-195.2787,0.0741272,482.4252,0,0,1
-172.0362,0.07412815,491.6331,0,0,1
-143.7778,1.174256,473.2452,0,0,1
-124.2105,0.6739178,494.4514,0,0,1
-102.3086,0.0741272,519.2568,0,0,1
-380.9218,0.0741272,498.5143,0,0,1
-281.3844,2.852339,438.338,0,0,1
-312.8767,0.3552542,515.392,0,0,1
-287.9518,0.0741272,535.3458,0,0,1
-256.9617,0.07412624,547.6231,0,0,1
-225.9717,0.0741272,559.9003,0,0,1
-194.9817,0.07412624,572.1775,0,0,1
-156.6463,1.282421,544.0428,1,0,0
-130.0976,1.048597,562.9438,1,0,0
-102.0116,0.07412815,609.009,0,0,1
-420.5998,2.455005,534.0191,0,0,0
-473.2979,0.0741272,641.1872,0,0,1
-315.4485,3.515404,518.6473,0,0,1
-380.3278,0.07412624,678.0188,0,0,1
-298.6199,1.601284,628.257,0,0,1
-277.1589,0.6279354,689.1066,0,0,1
-240.8726,0.0741272,733.2662,0,0,1
-159.8314,3.863698,561.566,1,0,0
-129.9605,4.087765,561.3494,1,0,0
-101.4175,0.0741272,788.5135,0,0,1
-422.8709,6.23731,536.0514,0,0,0
-354.1551,6.68374,515.2553,1,0.92,0.016
-486.311,4.154848,734.9109,0,0,1
-415.9777,4.430926,733.0793,0,0,1
-351.194,4.697977,730.0199,0,0,1
-302.6241,4.659632,753.386,0,0,1
-256.449,4.508426,787.9431,0,0,1
-159.8314,6.968913,561.566,1,0,0
-129.7613,7.10323,559.0314,1,0,0
-102.0642,6.888125,593.1412,1,0,0
-420.262,10.07413,533.7168,0,0,0
-354.1551,10.07413,515.2553,1,0.92,0.016
-492.2753,10.07413,742.4601,0,0,1
-419.2585,10.07413,738.1465,0,0,1
-353.6815,10.07413,734.8345,0,0,1
-304.191,10.07413,757.3409,0,0,1
-257.4771,10.07413,791.5519,0,0,1
-159.8314,10.07413,561.566,1,0,0
-129.6413,10.07413,557.6349,1,0,0
-102.093,10.07413,584.428,1,0,0
-422.6951,15.83853,743.4542,0,0,1
-356.2855,15.56065,739.8751,0,0,1
-305.4528,15.56542,760.5259,0,0,1
-197.4655,13.49767,580.8962,1,0,0
-159.8314,13.17934,561.566,1,0,0
-129.3598,13.00012,554.3602,1,0,0
-102.1015,13.15533,581.8539,1,0,0
-306.6137,21.11975,763.4564,0,0,1
-196.5844,16.85721,577.803,1,0,0
-159.8314,16.28456,561.566,1,0,0
-129.3817,15.931,554.6146,1,0,0
-102.1072,16.20469,580.1392,1,0,0
-307.921,26.74905,766.7563,0,0,1
-195.9943,20.18444,575.7316,1,0,0
-159.8314,19.38977,561.566,1,0,0
-129.3215,18.83924,553.9144,1,0,0
-102.1115,19.23389,578.8438,1,0,0
-195.7615,23.52073,574.9145,1,0,0
-159.3157,22.38189,558.729,1,0,0
-129.3053,21.75372,553.7264,1,0,0
-102.1129,22.27174,578.4289,1,0,0
-259.1536,0.0741272,410.2448,0,0,1
-240.0959,0.0741272,416.3114,0,0,1
-221.0381,0.0741272,422.3779,0,0,1
-201.9804,0.0741272,428.4444,0,0,1
-182.9227,0.0741272,434.5109,0,0,1
-163.8649,0.0741272,440.5774,0,0,1
-144.8072,0.0741272,446.644,0,0,1
-125.7495,0.0741272,452.7104,0,0,1
-106.6917,0.0741272,458.7769,0,0,1
-88.0816,0.3617029,458.6651,0,0,1
-278.0038,1.107167,429.6136,0,0,1
-274.3199,0.0741272,457.8892,0,0,1
-250.4977,0.0741272,465.4724,0,0,1
-226.6755,0.0741272,473.0555,0,0,1
-202.8534,0.0741272,480.6386,0,0,1
-179.0312,0.0741272,488.2217,0,0,1
-155.209,0.07412815,495.8049,0,0,1
-128.9003,0.9563007,481.0348,0,0,1
-107.5647,0.0741272,510.9712,0,0,1
-83.74249,0.07412624,518.5543,0,0,1
-283.5181,3.136755,435.2797,0,0,1
-318.5107,0.6372938,511.5754,0,0,1
-299.597,0.07412815,537.2964,0,0,1
-267.8341,0.0741272,547.4073,0,0,1
-236.0713,0.07412624,557.5181,0,0,1
-204.3084,0.07412624,567.629,0,0,1
-166.3754,0.9638978,548.5786,1,0,0
-129.4811,3.081223,486.2557,0,0,1
-108.7836,0.4797558,583.8473,1,0,0
-77.25671,0.0741272,608.0724,0,0,1
-493.0844,0.0741272,650.6121,0,0,1
-321.6339,3.691649,515.3696,0,0,1
-306.6996,3.166364,547.6863,0,0,1
-310.4628,1.681267,624.4147,0,0,1
-287.8868,0.8076763,677.4403,0,0,1
-254.8627,0.0741272,726.4435,0,0,1
-169.0011,3.748205,560.9886,1,0,0
-137.4568,3.997414,557.9532,1,0,0
-108.7498,3.71665,581.8236,1,0,0
-64.28528,0.0741272,787.1086,0,0,1
-545.7526,4.398694,704.7294,0,0,1
-502.0925,4.246456,734.6039,0,0,1
-430.0651,4.526437,728.1494,0,0,1
-368.6696,4.69919,729.5637,0,0,1
-316.9731,4.711216,744.7578,0,0,1
-270.819,4.54808,776.5699,0,0,1
-168.444,6.937948,558.3553,1,0,0
-137.8587,7.000126,561.566,1,0,0
-108.6792,6.93584,577.6011,1,0,0
-552.3613,10.07413,711.52,0,0,1
-507.2123,10.07413,740.8237,0,0,1
-433.376,10.07413,732.9927,0,0,1
-382.1967,10.07413,753.9998,0,0,1
-318.6784,10.07413,748.7043,0,0,1
-272.3413,10.07413,781.352,0,0,1
-168.1456,10.07413,556.9449,1,0,0
-137.041,10.07413,554.2153,1,0,0
-108.6239,10.07413,574.297,1,0,0
-513.7177,16.07164,748.7269,0,0,1
-437.3356,15.74521,738.7849,0,0,1
-320.1503,15.51674,752.1109,0,0,1
-273.5076,15.68881,785.0159,0,0,1
-167.7551,13.17719,555.0995,1,0,0
-136.9036,13.06342,552.9802,1,0,0
-108.5818,13.15662,571.7766,1,0,0
-321.701,21.03716,755.6998,0,0,1
-274.6833,21.38101,788.7092,0,0,1
-167.5079,16.25649,553.931,1,0,0
-136.7898,16.03253,551.9574,1,0,0
-108.5534,16.20659,570.0794,1,0,0
-276.1973,27.1842,793.4654,0,0,1
-167.3645,19.327,553.2537,1,0,0
-136.7122,18.99107,551.2593,1,0,0
-108.5316,19.23545,568.7786,1,0,0
-167.323,22.40331,553.0572,1,0,0
-136.6727,21.94937,550.9045,1,0,0
-108.5242,22.27222,568.335,1,0,0
-249.1923,0.0741272,419.37,0,0,1
-229.803,0.0741272,424.2746,0,0,1
-210.4138,0.0741272,429.1792,0,0,1
-191.0245,0.0741272,434.0838,0,0,1
-171.6351,0.0741272,438.9884,0,0,1
-152.2458,0.0741272,443.8929,0,0,1
-132.8566,0.0741272,448.7976,0,0,1
-113.4673,0.0741272,453.7022,0,0,1
-94.07794,0.0741272,458.6068,0,0,1
-75.89087,0.4957905,454.5084,0,0,1
-285.6906,0.07412624,461.7125,0,0,1
-261.4539,0.0741272,467.8432,0,0,1
-237.2172,0.0741272,473.974,0,0,1
-212.9806,0.0741272,480.1047,0,0,1
-188.744,0.0741272,486.2355,0,0,1
-164.5074,0.0741272,492.3662,0,0,1
-136.4168,1.113737,472.663,0,0,1
-116.0341,0.0741272,504.6277,0,0,1
-91.79749,0.07412624,510.7585,0,0,1
-73.82416,1.831561,469.9853,0,0,1
-326.1944,0.9094973,508.7021,0,0,1
-305.843,0.4704275,528.9468,0,0,1
-281.8897,0.0741272,548.6319,0,0,1
-249.5742,0.0741272,556.8063,0,0,1
-217.2587,0.07412624,564.9807,0,0,1
-184.9349,0.0751524,573.1218,0,0,1
-136.85,3.266192,475.5668,0,0,1
-119.3249,0.651123,569.9144,1,0,0
-87.9967,0.07412815,597.678,0,0,1
-55.68121,0.0741272,605.8524,0,0,1
-330.4015,3.849106,513.5828,0,0,1
-306.9595,3.636384,530.4836,0,0,1
-371.2347,0.0741272,697.9479,0,0,1
-288.3768,1.640185,638.1379,0,0,1
-274.2882,0.0741272,722.4709,0,0,1
-184.6628,3.430338,572.046,1,0,0
-149.6795,3.805119,561.566,1,0,0
-119.2547,3.819482,568.5212,1,0,0
-80.3952,0.07412815,771.5169,0,0,1
-31.922,0.0741272,783.7786,0,0,1
-336.0596,6.884105,520.147,1,0.92,0.016
-450.6442,4.585414,728.2715,0,0,1
-396.011,4.611941,739.3549,0,0,1
-335.3786,4.786802,736.6553,0,0,1
-289.0067,4.643986,763.1168,0,0,1
-183.5672,6.796909,567.7148,1,0,0
-149.6795,6.939622,561.566,1,0,0
-119.1198,6.973074,565.8457,1,0,0
-336.0596,10.07413,520.147,1,0.92,0.016
-463.9382,10.07413,746.5711,0,0,1
-399.8237,10.07413,745.7266,0,0,1
-337.2205,10.07413,740.5162,0,0,1
-290.4415,10.07413,767.079,0,0,1
-182.8234,10.07413,564.7745,1,0,0
-149.6795,10.07413,561.566,1,0,0
-119.0126,10.07413,563.7194,1,0,0
-336.9311,13.27609,521.158,1,0.92,0.016
-338.9531,15.44285,744.1478,0,0,1
-291.597,15.57997,770.2702,0,0,1
-183.4277,13.34566,567.1633,1,0,0
-149.6795,13.20863,561.566,1,0,0
-119.1628,13.18356,566.6989,1,0,0
-338.3633,16.51729,522.8195,1,0.92,0.016
-341.0762,20.90828,748.5978,0,0,1
-292.7474,21.15305,773.447,0,0,1
-183.4041,16.61526,567.0701,1,0,0
-149.6795,16.34314,561.566,1,0,0
-119.1011,16.26895,565.4749,1,0,0
-337.8574,19.71808,522.2327,1,0.92,0.016
-294.0394,26.80579,777.0151,0,0,1
-183.1803,19.85845,566.1854,1,0,0
-149.6795,19.47765,561.566,1,0,0
-119.0653,19.34544,564.7643,1,0,0
-336.7726,22.87329,520.9742,1,0.92,0.016
-181.1081,22.7819,557.9936,1,0,0
-149.6795,22.61215,561.566,1,0,0
-118.7367,22.17982,558.2445,1,0,0
-237.9834,0.0741272,428.4191,0,0,1
-218.3185,0.0741272,432.0651,0,0,1
-198.6536,0.0741272,435.711,0,0,1
-178.9888,0.0741272,439.3569,0,0,1
-159.3239,0.0741272,443.0028,0,0,1
-139.659,0.0741272,446.6487,0,0,1
-119.9941,0.0741272,450.2947,0,0,1
-100.3293,0.0741272,453.9406,0,0,1
-81.33044,0.36971,451.4506,0,0,1
-62.87769,0.5191908,451.8312,0,0,1
-271.6793,0.07412624,473.024,0,0,1
-247.0982,0.0741272,477.5813,0,0,1
-222.5172,0.07412624,482.1388,0,0,1
-197.936,0.0741272,486.6961,0,0,1
-173.3549,0.0741272,491.2535,0,0,1
-144.8458,0.9360247,474.6245,0,0,1
-123.6369,0.3388872,493.7396,0,0,1
-99.61163,0.0741272,504.9257,0,0,1
-75.03058,0.0741272,509.4832,0,0,1
-50.4494,0.07412624,514.0406,0,0,1
-309.0201,0.9118729,522.4536,0,0,1
-295.0643,0.0741272,553.4418,0,0,1
-262.2896,0.0741272,559.5182,0,0,1
-229.5148,0.0741272,565.5948,0,0,1
-196.74,0.07412624,571.6714,0,0,1
-157.7162,1.102515,544.0428,1,0,0
-129.4735,0.6875266,563.3477,1,0,0
-98.41559,0.07412624,589.901,0,0,1
-65.64081,0.07412815,595.9775,0,0,1
-32.86597,0.0741272,602.054,0,0,1
-310.3264,3.927189,524.1828,0,0,1
-390.9966,0.07412624,705.1627,0,0,1
-305.5651,1.593995,643.7134,0,0,1
-278.236,0.8360472,687.3235,0,0,1
-243.5101,0.0741272,732.5071,0,0,1
-160.9651,3.736614,561.566,1,0,0
-129.3574,3.844049,561.9629,1,0,0
-96.0235,0.07412815,759.8514,0,0,1
-46.86127,0.07412815,768.9662,0,0,1
2.300807,0.0741272,778.0811,0,0,1
-471.3196,4.611743,737.2968,0,0,1
-410.119,4.741906,735.4056,0,0,1
-350.244,4.897926,730.6386,0,0,1
-304.2531,4.768519,752.3268,0,0,1
-259.241,4.513548,786.6036,0,0,1
-160.9651,6.90537,561.566,1,0,0
-129.146,6.984258,559.4423,1,0,0
-95.32733,4.589089,809.3109,0,0,1
-476.7036,10.07413,744.4238,0,0,1
-413.3288,10.07413,740.4819,0,0,1
-352.5281,10.07413,735.0826,0,0,1
-305.8047,10.07413,756.2034,0,0,1
-260.3163,10.07413,790.3016,0,0,1
-160.9651,10.07413,561.566,1,0,0
-129.0241,10.07413,557.9882,1,0,0
-98.23022,10.07413,603.0751,1,0,0
-417.1068,15.52775,746.4568,0,0,1
-354.8779,15.34742,739.6542,0,0,1
-307.1107,15.45514,759.4662,0,0,1
-261.2463,15.70616,793.4993,0,0,1
-160.1766,13.19963,557.3132,1,0,0
-128.7465,13.11642,554.6774,1,0,0
-98.34654,13.45561,594.8109,1,0,0
-308.3769,20.90299,762.6299,0,0,1
-200.0987,16.98018,583.2214,1,0,0
-160.2525,16.33347,557.723,1,0,0
-128.6742,16.1415,553.8154,1,0,0
-98.41681,16.73918,589.8184,1,0,0
-309.7969,26.42984,766.1779,0,0,1
-199.5299,20.37238,581.2654,1,0,0
-160.3457,19.47846,558.2253,1,0,0
-128.6906,19.18102,554.0104,1,0,0
-98.46119,19.97894,586.6653,1,0,0
-199.2944,23.77156,580.4554,1,0,0
-159.6195,22.45391,554.3084,1,0,0
-128.6741,22.2088,553.8136,1,0,0
-98.47837,23.23267,585.4451,1,0,0
-226.9609,0.0741272,436.2342,0,0,1
-207.1118,0.0741272,438.6858,0,0,1
-187.2625,0.0741272,441.1373,0,0,1
-167.4133,0.0741272,443.5888,0,0,1
-147.5641,0.0741272,446.0403,0,0,1
-127.715,0.0741272,448.4919,0,0,1
-107.8658,0.0741272,450.9434,0,0,1
-88.15991,0.1684961,451.4755,0,0,1
-69.23071,0.3776369,449.5988,0,0,1
-48.33624,0.07740593,458.2296,0,0,1
-257.9012,0.07412624,482.7928,0,0,1
-233.0897,0.0741272,485.8572,0,0,1
-208.2783,0.07412624,488.9216,0,0,1
-183.4667,0.0741272,491.986,0,0,1
-158.6553,0.0741272,495.0504,0,0,1
-131.1706,0.9464664,476.4707,0,0,1
-109.0323,0.0741272,501.1792,0,0,1
-84.22083,0.0741272,504.2436,0,0,1
-65.50201,1.465449,471.5082,0,0,1
-34.59784,0.07412624,510.3724,0,0,1
-304.6585,0.3073082,553.1527,0,0,1
-276.3863,0.07412815,564.4763,0,0,1
-243.3044,0.0741272,568.5621,0,0,1
-210.2224,0.0741272,572.648,0,0,1
-174.7262,0.4006538,566.0651,1,0,0
-131.9674,3.033361,482.9224,0,0,1
-110.8769,0.2023219,580.6123,1,0,0
-77.89453,0.0741272,588.9915,0,0,1
-44.81256,0.0741272,593.0773,0,0,1
-11.73059,0.0741272,597.1631,0,0,1
-412.6026,0.0741272,715.5855,0,0,1
-325.3994,1.520749,653.4752,0,0,1
-290.8439,1.145362,676.6548,0,0,1
-263.7338,0.07412624,733.9719,0,0,1
-174.3848,3.655925,564.5566,1,0,0
-132.5336,5.287891,487.5072,0,0,1
-110.8363,3.527675,578.8665,1,0,0
-65.24194,0.07412624,758.4872,0,0,1
-15.61896,0.07412815,764.616,0,0,1
34.00395,0.07412696,770.7448,0,0,1
-422.9935,4.906209,731.2216,0,0,1
-367.2744,4.991466,729.5129,0,0,1
-320.1595,4.912276,743.311,0,0,1
-276.5427,4.675179,772.5879,0,0,1
-173.6283,6.899131,561.2136,1,0,0
-141.6806,6.934793,561.566,1,0,0
-110.7354,6.844149,574.5214,1,0,0
-425.7921,10.07413,735.4327,0,0,1
-381.4642,10.07413,755.279,0,0,1
-321.8496,10.07413,747.154,0,0,1
-277.9804,10.07413,776.9225,0,0,1
-173.1844,10.07413,559.2525,1,0,0
-141.3534,10.07413,558.9169,1,0,0
-110.657,10.07413,571.1443,1,0,0
-428.6855,15.33403,739.787,0,0,1
-323.3542,15.31199,750.5749,0,0,1
-279.1556,15.55446,780.4655,0,0,1
-172.2891,13.18875,555.2959,1,0,0
-141.6806,13.21346,561.566,1,0,0
-110.5973,13.2449,568.5728,1,0,0
-324.9473,20.62565,754.1972,0,0,1
-280.325,21.10763,783.9905,0,0,1
-171.9425,16.27214,553.7646,1,0,0
-141.6806,16.35279,561.566,1,0,0
-110.5576,16.3816,566.8611,1,0,0
-281.7611,26.75857,788.3203,0,0,1
-172.1325,19.39682,554.6042,1,0,0
-141.6806,19.49213,561.566,1,0,0
-110.5285,19.49794,565.6088,1,0,0
-172.044,22.48844,554.2132,1,0,0
-141.6806,22.63146,561.566,1,0,0
-110.5202,22.6251,565.2543,1,0,0
-216.0137,0.0741272,443.0623,0,0,1
-196.0561,0.0741272,444.3649,0,0,1
-176.0986,0.0741272,445.6675,0,0,1
-156.1411,0.0741272,446.9701,0,0,1
-136.1835,0.0741272,448.2728,0,0,1
-116.226,0.0741272,449.5754,0,0,1
-96.26849,0.0741272,450.878,0,0,1
-76.75323,0.2386446,448.8544,0,0,1
-56.94147,0.1996527,450.929,0,0,1
-36.39581,0.0741272,454.7859,0,0,1
-244.2172,0.0741272,491.3278,0,0,1
-219.2702,0.0741272,492.9561,0,0,1
-194.3233,0.0741272,494.5844,0,0,1
-169.3763,0.0741272,496.2126,0,0,1
-140.1424,1.113929,472.0704,0,0,1
-119.4825,0.0741272,499.4691,0,0,1
-94.53564,0.07412815,501.0974,0,0,1
-74.37732,1.498849,466.7194,0,0,1
-44.64178,0.0741272,504.3541,0,0,1
-19.69489,0.07412624,505.9824,0,0,1
-291.2229,0.0741272,571.7704,0,0,1
-257.9604,0.07412815,573.9414,0,0,1
-224.6978,0.0741272,576.1125,0,0,1
-191.4352,0.0741272,578.2835,0,0,1
-140.7468,3.244027,475.7038,0,0,1
-123.8878,0.5450356,566.962,1,0,0
-91.64758,0.0741272,584.7967,0,0,1
-58.38501,0.07412815,586.9677,0,0,1
-25.12244,0.07412815,589.1387,0,0,1
8.140044,0.0741272,591.3098,0,0,1
-378.6532,0.307478,721.3928,0,0,1
-300.0583,1.593995,662.0599,0,0,1
-285.4468,0.07412815,739.1687,0,0,1
-193.497,3.251684,585.954,1,0,0
-155.0305,3.788522,561.566,1,0,0
-123.8019,3.74778,565.6458,1,0,0
-85.87146,0.0741272,752.1949,0,0,1
-35.97766,0.07412815,755.4515,0,0,1
13.91615,0.0741272,758.7081,0,0,1
63.80997,0.0741272,761.9645,0,0,1
-390.2525,4.985167,741.243,0,0,1
-335.7519,5.06527,736.7729,0,0,1
-293.1544,4.862669,759.8565,0,0,1
-191.2997,6.745915,577.7792,1,0,0
-155.0305,6.931325,561.566,1,0,0
-123.6266,6.937878,562.959,1,0,0
-83.27911,4.326122,827.3238,0,0,1
-394.2448,10.07413,748.0753,0,0,1
-337.4875,10.07413,740.4059,0,0,1
-294.6187,10.07413,763.7868,0,0,1
-189.6404,10.07413,571.6054,1,0,0
-155.0305,10.07413,561.566,1,0,0
-123.5082,10.07413,561.1458,1,0,0
-339.1279,15.1557,743.8396,0,0,1
-295.7521,15.35686,766.829,0,0,1
-187.9374,13.27532,565.2694,1,0,0
-155.0305,13.21693,561.566,1,0,0
-123.6798,13.21855,563.7749,1,0,0
-341.0641,20.32068,747.8924,0,0,1
-296.836,20.69905,769.7383,0,0,1
-187.5129,16.44444,563.6902,1,0,0
-155.0305,16.35973,561.566,1,0,0
-123.5946,16.33682,562.4696,1,0,0
-298.0329,26.11003,772.9509,0,0,1
-187.2549,19.60033,562.7302,1,0,0
-155.0305,19.50254,561.566,1,0,0
-123.5579,19.45124,561.9066,1,0,0
-299.8586,31.65569,777.8514,0,0,1
-187.607,22.82896,564.0403,1,0,0
-155.0305,22.64534,561.566,1,0,0
-123.1329,22.31594,555.3956,1,0,0
-205.8154,0.0741272,448.6707,0,0,1
-185.8172,0.0741272,448.9331,0,0,1
-165.8188,0.0741272,449.1955,0,0,1
-145.8206,0.0741272,449.4579,0,0,1
-125.8223,0.0741272,449.7204,0,0,1
-105.824,0.0741272,449.9828,0,0,1
-85.96014,0.1514788,448.6963,0,0,1
-66.40582,0.2288771,447.4048,0,0,1
-45.82922,0.0741272,450.7701,0,0,1
-25.83093,0.0741272,451.0325,0,0,1
-231.4694,0.0741272,498.3383,0,0,1
-206.4715,0.0741272,498.6664,0,0,1
-181.4737,0.0741272,498.9944,0,0,1
-156.2849,0.1099596,498.429,0,0,1
-129.2877,0.8486862,480.3136,0,0,1
-106.4801,0.0741272,499.9785,0,0,1
-81.4823,0.0741272,500.3065,0,0,1
-56.48438,0.0741272,500.6346,0,0,1
-31.48657,0.0741272,500.9626,0,0,1
-6.488708,0.0741272,501.2907,0,0,1
-274.2259,0.07412815,581.1177,0,0,1
-240.8954,0.07412815,581.5551,0,0,1
-207.5649,0.07412815,581.9925,0,0,1
-167.1567,1.070513,549.3069,1,0,0
-129.8729,2.999836,485.48,0,0,1
-107.5735,0.07412624,583.3046,0,0,1
-74.2431,0.0741272,583.742,0,0,1
-40.9126,0.0741272,584.1794,0,0,1
-7.582153,0.0741272,584.6168,0,0,1
25.74825,0.0741272,585.0541,0,0,1
-347.9385,0.534112,723.8302,0,0,1
-282.8965,1.373939,682.6888,0,0,1
-259.7476,0.07412815,747.9888,0,0,1
-169.739,3.829369,561.3917,1,0,0
-138.4913,3.834083,561.566,1,0,0
-107.5839,3.391847,584.0853,1,0,0
-59.76471,0.0741272,750.613,0,0,1
-9.769043,0.07412624,751.2691,0,0,1
40.22659,0.0741272,751.9251,0,0,1
90.2223,0.0741272,752.5812,0,0,1
-351.4305,5.236061,730.5909,0,0,1
-310.4031,5.058155,748.9214,0,0,1
-269.2363,4.771065,778.1732,0,0,1
-169.1282,6.980412,558.533,1,0,0
-138.4913,6.954105,561.566,1,0,0
-107.5245,6.77822,579.5624,1,0,0
-353.6279,10.07413,734.8452,0,0,1
-311.8339,10.07413,752.3668,0,0,1
-270.6489,10.07413,782.6668,0,0,1
-168.8307,10.07413,557.1408,1,0,0
-138.4913,10.07413,561.566,1,0,0
-107.4787,10.07413,576.0728,1,0,0
-355.9192,14.99968,739.2813,0,0,1
-313.1142,15.15573,755.4495,0,0,1
-271.7405,15.45717,786.1392,0,0,1
-168.4301,13.13508,555.266,1,0,0
-137.4964,13.10619,552.7825,1,0,0
-107.4439,13.3086,573.4196,1,0,0
-314.4205,20.30058,758.595,0,0,1
-272.8387,20.91037,789.6328,0,0,1
-168.177,16.17229,554.0815,1,0,0
-137.3866,16.11885,551.8134,1,0,0
-107.4214,16.50882,571.707,1,0,0
-316.0569,25.53265,762.5354,0,0,1
-274.1825,26.45725,793.9073,0,0,1
-168.0286,19.20048,553.3873,1,0,0
-137.3082,19.12042,551.1215,1,0,0
-107.4053,19.68925,570.4764,1,0,0
-167.9868,22.23475,553.1917,1,0,0
-137.2746,22.12395,550.8243,1,0,0
-107.3992,22.87569,570.0117,1,0,0
-194.9418,0.0741272,453.9201,0,0,1
-174.9584,0.0741272,453.1027,0,0,1
-154.9752,0.0741272,452.2852,0,0,1
-134.9919,0.0741272,451.4677,0,0,1
-115.0086,0.0741272,450.6503,0,0,1
-95.02527,0.0741272,449.8329,0,0,1
-75.30475,0.1674356,447.1585,0,0,1
-55.05994,0.07437801,448.1931,0,0,1
-35.0755,0.0741272,447.3806,0,0,1
-15.09216,0.0741272,446.5631,0,0,1
-217.8773,0.07412624,504.9002,0,0,1
-192.8981,0.07412624,503.8784,0,0,1
-167.919,0.07412624,502.8566,0,0,1
-138.3262,1.235101,472.5973,0,0,1
-117.9608,0.0741272,500.8129,0,0,1
-92.98169,0.0741272,499.7911,0,0,1
-73.03485,1.503859,463.202,0,0,1
-43.02344,0.0741272,497.7475,0,0,1
-18.04437,0.07412624,496.7257,0,0,1
6.934678,0.0741272,495.7039,0,0,1
-256.1031,0.0741272,589.8669,0,0,1
-222.7976,0.0741272,588.5045,0,0,1
-186.9687,0.366566,577.2827,1,0,0
-138.8192,3.351818,475.7214,0,0,1
-121.9286,0.558179,568.2297,1,0,0
-89.57568,0.0741272,583.0548,0,0,1
-56.2702,0.07412624,581.6924,0,0,1
-22.96472,0.07412624,580.33,0,0,1
10.34069,0.0741272,578.9676,0,0,1
43.64618,0.07412744,577.6052,0,0,1
-298.1158,1.575684,683.2509,0,0,1
-282.0656,0.1037235,756.2539,0,0,1
-186.118,3.668143,573.959,1,0,0
-152.3658,3.888203,561.566,1,0,0
-121.8503,3.756663,566.9003,1,0,0
-82.76367,0.07412815,749.5822,0,0,1
-32.80542,0.0741272,747.5386,0,0,1
17.15274,0.0741272,745.495,0,0,1
67.11095,0.0741272,743.4514,0,0,1
117.0692,0.0741272,741.4078,0,0,1
-324.4224,5.251416,741.7239,0,0,1
-285.5825,4.990904,766.2081,0,0,1
-184.6787,6.926732,568.3358,1,0,0
-152.3658,6.981167,561.566,1,0,0
-121.6918,6.942248,564.2064,1,0,0
-326.0436,10.07413,745.3275,0,0,1
-286.8954,10.07413,769.9239,0,0,1
-183.9543,10.07413,565.5056,1,0,0
-152.3657,10.07413,561.566,1,0,0
-121.5767,10.07413,562.2515,1,0,0
-327.4952,14.96383,748.5542,0,0,1
-287.9881,15.2244,773.0168,0,0,1
-184.5669,13.21721,567.8989,1,0,0
-152.3658,13.16709,561.566,1,0,0
-121.5954,13.18968,562.5683,1,0,0
-329.055,19.92154,752.0212,0,0,1
-289.0417,20.4334,775.9989,0,0,1
-184.5439,16.35851,567.8091,1,0,0
-152.3658,16.26005,561.566,1,0,0
-121.5954,16.30524,562.5683,1,0,0
-290.1968,25.70962,779.2682,0,0,1
-183.997,19.43732,565.6725,1,0,0
-152.3658,19.35301,561.566,1,0,0
-121.5954,19.42078,562.5683,1,0,0
-292.0982,31.13342,784.6497,0,0,1
-182.2506,22.28854,558.8492,1,0,0
-152.3658,22.44598,561.566,1,0,0
-121.2446,22.29873,556.6089,1,0,0
-182.519,0.0741272,459.0657,0,0,1
-162.6211,0.07412815,457.0486,0,0,1
-142.723,0.0741272,455.0315,0,0,1
-122.825,0.0741272,453.0144,0,0,1
-102.9269,0.0741272,450.9973,0,0,1
-83.17157,0.144845,447.5731,0,0,1
-63.36194,0.1317749,445.8278,0,0,1
-43.23291,0.0741272,444.9461,0,0,1
-23.33484,0.0741272,442.929,0,0,1
-3.436829,0.0741272,440.912,0,0,1
-202.3489,0.0741272,511.332,0,0,1
-177.4763,0.07412624,508.8108,0,0,1
-147.1554,1.176961,478.0249,0,0,1
-125.8484,0.84167,484.2903,0,0,1
-102.8588,0.07412815,501.2467,0,0,1
-81.45905,1.451471,464.4673,0,0,1
-53.11371,0.07412815,496.2039,0,0,1
-28.24115,0.0741272,493.6826,0,0,1
-3.368591,0.0741272,491.1613,0,0,1
21.50383,0.0741272,488.6399,0,0,1
-235.3986,0.0741272,598.4428,0,0,1
-202.2352,0.0741272,595.0809,0,0,1
-159.8815,1.469321,544.0428,1,0,0
-127.0851,2.771672,497.084,0,0,1
-102.7451,0.07412624,584.9956,0,0,1
-69.58173,0.0741272,581.6338,0,0,1
-36.4184,0.07412624,578.272,0,0,1
-3.254944,0.07412624,574.9102,0,0,1
29.90835,0.07412744,571.5483,0,0,1
63.0717,0.0741272,568.1865,0,0,1
-276.3821,1.340701,706.4648,0,0,1
-251.753,0.0741272,767.6214,0,0,1
-162.5537,4.067149,557.9051,1,0,0
-133.1809,3.963406,560.1411,1,0,0
-102.7189,3.023099,604.3095,1,0,0
-52.77271,0.07412815,747.4506,0,0,1
-3.027588,0.0741272,742.4079,0,0,1
46.71736,0.07412696,737.3652,0,0,1
96.46243,0.07412767,732.3226,0,0,1
146.2075,0.0741272,727.2798,0,0,1
-296.1252,5.209599,758.5029,0,0,1
-257.5327,4.879593,787.7604,0,0,1
-162.7702,7.059679,559.0283,1,0,0
-132.9692,7.040341,557.951,1,0,0
-102.7379,6.687241,590.3776,1,0,0
241.1533,3.170699,908.9733,0,0,1
-297.2994,10.07413,761.5977,0,0,1
-258.5009,10.07413,791.1339,0,0,1
-162.339,10.07413,556.7914,1,0,0
-132.8446,10.07413,556.6618,1,0,0
-102.7473,10.07413,583.4106,1,0,0
-298.3954,14.9959,764.4866,0,0,1
-198.816,13.29237,583.1667,1,0,0
-161.5204,13.02534,552.545,1,0,0
-132.6917,13.07963,555.0803,1,0,0
-102.751,13.36442,580.6702,1,0,0
-299.4328,19.96998,767.2206,0,0,1
-197.9326,16.45116,580.0887,1,0,0
-161.3373,15.958,551.595,1,0,0
-132.5835,16.06308,553.961,1,0,0
-102.7534,16.62034,578.9428,1,0,0
-300.5329,25.00112,770.1203,0,0,1
-197.2925,19.57504,577.8583,1,0,0
-161.2046,18.87979,550.9064,1,0,0
-132.5188,19.03778,553.2916,1,0,0
-102.755,19.85758,577.7415,1,0,0
-301.9407,30.11877,773.8309,0,0,1
-197.07,22.71206,577.0831,1,0,0
-161.1557,21.80511,550.6526,1,0,0
-132.5017,22.01871,553.1152,1,0,0
-102.7556,23.10148,577.3079,1,0,0
-170.1533,0.0741272,463.3477,0,0,1
-150.4073,0.0741272,460.1701,0,0,1
-130.6614,0.0741272,456.9925,0,0,1
-110.9155,0.0741272,453.8148,0,0,1
-91.16949,0.0741272,450.6372,0,0,1
-71.71051,0.1644344,445.6764,0,0,1
-51.67755,0.0741272,444.282,0,0,1
-31.93164,0.0741272,441.1043,0,0,1
-12.18567,0.0741272,437.9267,0,0,1
7.560237,0.0741272,434.7491,0,0,1
-186.8917,0.07412624,516.6846,0,0,1
-162.2093,0.0741272,512.7126,0,0,1
-133.0667,1.37343,475.1223,0,0,1
-112.8444,0.0741272,504.7685,0,0,1
-88.16193,0.07412815,500.7964,0,0,1
-68.63947,1.373206,464.76,0,0,1
-38.797,0.07412815,492.8524,0,0,1
-14.11456,0.0741272,488.8804,0,0,1
10.5678,0.0741272,484.9084,0,0,1
35.25026,0.0741272,480.9363,0,0,1
-214.789,0.07412815,605.5795,0,0,1
-174.1025,1.062522,565.6616,1,0,0
-133.4563,3.463491,478.0586,0,0,1
-115.4482,0.5493758,573.5476,1,0,0
-83.14929,0.07412624,584.3953,0,0,1
-50.23938,0.07412624,579.0993,0,0,1
-17.32947,0.07412624,573.8032,0,0,1
15.58041,0.07412696,568.5072,0,0,1
48.49034,0.07412744,563.2112,0,0,1
81.40028,0.0741272,557.9152,0,0,1
-266.0637,0.3441572,768.9666,0,0,1
-173.6562,4.104207,563.6746,1,0,0
-134.6862,5.487884,487.3294,0,0,1
-115.3714,3.764089,571.5198,1,0,0
-73.12408,0.0741272,751.5929,0,0,1
-23.75916,0.07412815,743.6488,0,0,1
25.60565,0.0741272,735.7049,0,0,1
74.97053,0.0741272,727.7608,0,0,1
124.3354,0.0741272,719.8168,0,0,1
173.7003,0.0741272,711.8726,0,0,1
-269.1304,5.117538,778.7384,0,0,1
-172.9711,7.118194,560.6245,1,0,0
-144.5352,7.063718,561.566,1,0,0
-115.2519,6.950084,568.3632,1,0,0
235.7282,2.626313,949.8215,0,0,1
273.3896,3.274033,878.1555,0,0,1
-270.4188,10.07413,782.8439,0,0,1
-172.586,10.07413,558.9099,1,0,0
-144.5352,10.07413,561.566,1,0,0
-115.1653,10.07413,566.0746,1,0,0
-271.4385,15.09966,786.0933,0,0,1
-171.7146,12.97683,555.0305,1,0,0
-144.0953,13.0525,558.2501,1,0,0
-115.2553,13.19905,568.4531,1,0,0
-272.4455,20.18536,789.3021,0,0,1
-171.3752,15.85079,553.5194,1,0,0
-144.5352,16.09495,561.566,1,0,0
-115.2393,16.31571,568.0317,1,0,0
-273.6253,25.34671,793.0616,0,0,1
-171.5294,18.7587,554.206,1,0,0
-144.5352,19.10536,561.566,1,0,0
-115.0942,19.32364,564.1979,1,0,0
-171.4604,21.64188,553.8989,1,0,0
-144.5352,22.11577,561.566,1,0,0
-114.9595,22.26719,560.6408,1,0,0
-155.3624,0.0741272,467.4375,0,0,1
-135.8809,0.0741272,462.913,0,0,1
-116.3994,0.0741272,458.3885,0,0,1
-96.91785,0.0741272,453.864,0,0,1
-77.70953,0.1801558,447.226,0,0,1
-57.95483,0.0741272,444.815,0,0,1
-38.47339,0.0741272,440.2906,0,0,1
-18.99188,0.0741272,435.7661,0,0,1
0.4895823,0.0741272,431.2416,0,0,1
19.97109,0.0741272,426.7171,0,0,1
-168.4031,0.0741272,521.7969,0,0,1
-137.4773,1.683354,473.3131,0,0,1
-119.6402,0.1099138,509.5536,0,0,1
-95.34741,0.0741272,504.83,0,0,1
-75.27502,1.402987,466.0626,0,0,1
-46.64368,0.0741272,493.5188,0,0,1
-22.29175,0.0741272,487.8632,0,0,1
2.060056,0.0741272,482.2076,0,0,1
26.41193,0.0741272,476.552,0,0,1
48.89274,0.1956551,468.2119,0,0,1
-179.8125,1.261766,569.3563,1,0,0
-137.934,3.697193,476.2887,0,0,1
-123.3007,0.9371027,567.3419,1,0,0
-92.72998,0.07412624,589.7734,0,0,1
-60.26074,0.07412624,582.2326,0,0,1
-27.79163,0.07412624,574.6918,0,0,1
4.677498,0.07412708,567.1509,0,0,1
37.14668,0.0741272,559.6101,0,0,1
69.61586,0.07412767,552.0693,0,0,1
102.085,0.0741272,544.5285,0,0,1
-179.2948,4.238915,567.1985,1,0,0
-151.0237,4.22073,561.566,1,0,0
-123.2025,4.012544,565.7912,1,0,0
-87.495,0.07412815,759.6601,0,0,1
-38.79126,0.0741272,748.3488,0,0,1
9.912421,0.0741272,737.0377,0,0,1
58.61618,0.0741272,725.7264,0,0,1
107.3199,0.07412672,714.4152,0,0,1
156.0237,0.07412767,703.104,0,0,1
204.7275,0.0741272,691.7927,0,0,1
-178.5748,7.184128,564.1972,1,0,0
-151.0237,7.14743,561.566,1,0,0
-123.0409,7.06782,563.2401,1,0,0
-85.55219,4.455582,822.7097,0,0,1
256.5596,3.134952,878.8336,0,0,1
265.4772,4.087697,778.9523,0,0,1
-178.0579,10.07413,562.0424,1,0,0
-151.0237,10.07413,561.566,1,0,0
-122.9292,10.07413,561.4773,1,0,0
-178.1486,12.94779,562.4204,1,0,0
-151.0237,13.00083,561.566,1,0,0
-123.0282,13.07853,563.0403,1,0,0
-178.1486,15.82144,562.4204,1,0,0
-151.0237,15.92752,561.566,1,0,0
-123.0219,16.08099,562.9406,1,0,0
-178.1486,18.6951,562.4205,1,0,0
-151.0237,18.85422,561.566,1,0,0
-122.9726,19.06201,562.162,1,0,0
-176.4619,21.31007,555.3895,1,0,0
-151.0237,21.78092,561.566,1,0,0
-122.5746,21.81676,555.8787,1,0,0
-144.6175,0.0910635,469.3521,0,0,1
-125.4503,0.0741272,464.2544,0,0,1
-106.2128,0.0741272,458.7844,0,0,1
-87.19659,0.2104588,450.5427,0,0,1
-68.09991,0.1762037,445.825,0,0,1
-48.50049,0.0741272,442.3746,0,0,1
-29.263,0.0741272,436.9047,0,0,1
-10.02557,0.0741272,431.4348,0,0,1
9.211845,0.0741272,425.9648,0,0,1
28.44933,0.0741272,420.4949,0,0,1
-146.4612,1.732158,479.1166,0,0,1
-127.4608,1.35126,483.614,0,0,1
-106.9661,0.07412624,510.9805,0,0,1
-82.91931,0.0741272,504.1431,0,0,1
-62.07477,0.7965422,479.4399,0,0,1
-34.82568,0.0741272,490.4682,0,0,1
-10.77881,0.0741272,483.6309,0,0,1
13.26794,0.0741272,476.7935,0,0,1
37.31475,0.07412696,469.9561,0,0,1
56.10688,0.3934441,456.3134,0,0,1
-158.7206,2.044716,544.0428,1,0,0
-128.7061,3.196187,495.6048,0,0,1
-108.0345,0.446826,585.0051,1,0,0
-76.15918,0.07412624,588.8575,0,0,1
-44.09668,0.07412815,579.7409,0,0,1
-12.0343,0.07412624,570.6243,0,0,1
20.02809,0.0741272,561.5078,0,0,1
52.09051,0.07412696,552.3912,0,0,1
84.15297,0.07412767,543.2748,0,0,1
110.7494,0.3232417,527.0793,0,0,1
-161.9223,4.412494,560.9995,1,0,0
-135.2227,4.31734,558.3541,1,0,0
-108.0056,3.694235,583.0054,1,0,0
-62.63885,0.0741272,758.2863,0,0,1
-14.54517,0.0741272,744.6114,0,0,1
33.5484,0.0741272,730.9366,0,0,1
81.64204,0.0741272,717.2617,0,0,1
129.7357,0.07412672,703.5869,0,0,1
177.8294,0.0741272,689.9121,0,0,1
225.923,0.07412672,676.2373,0,0,1
-162.0293,7.238155,561.566,1,0,0
-135.0278,7.213258,556.4769,1,0,0
-107.9442,6.924943,578.7502,1,0,0
250.8019,2.475422,939.3347,0,0,1
290.1708,4.09808,759.4427,0,0,1
-161.9535,10.07413,561.1647,1,0,0
-134.8617,10.07413,554.8773,1,0,0
-107.8962,10.07413,575.4254,1,0,0
-160.677,12.84491,554.4041,1,0,0
-134.8497,12.91899,554.7623,1,0,0
-107.8597,13.16718,572.8906,1,0,0
-160.4836,15.59704,553.3799,1,0,0
-134.7315,15.7426,553.6234,1,0,0
-107.8352,16.22771,571.1929,1,0,0
-160.7031,18.39026,554.5426,1,0,0
-134.6655,18.55904,552.988,1,0,0
-107.8164,19.2672,569.8951,1,0,0
-160.2612,21.07708,552.2022,1,0,0
-134.6417,21.37879,552.7592,1,0,0
-107.81,22.31445,569.4483,1,0,0
-132.9228,0.0741272,471.6225,0,0,1
-114.0042,0.0741272,465.1355,0,0,1
-95.08539,0.0741272,458.6484,0,0,1
-76.60437,0.2360382,448.8882,0,0,1
-57.24792,0.0741272,445.6743,0,0,1
-38.32922,0.0741272,439.1873,0,0,1
-19.41046,0.0741272,432.7002,0,0,1
-0.4916992,0.0741272,426.2131,0,0,1
18.42689,0.0741272,419.7261,0,0,1
37.34562,0.0741272,413.2391,0,0,1
-133.4291,1.937868,475.3973,0,0,1
-116.5649,0.1779757,516.1266,0,0,1
-93.05676,0.0741272,510.8105,0,0,1
-74.23419,1.502249,466.6128,0,0,1
-45.75995,0.0741272,494.5929,0,0,1
-22.11157,0.0741272,486.484,0,0,1
1.536751,0.0741272,478.3752,0,0,1
25.18515,0.07412744,470.2664,0,0,1
48.49583,0.09634328,461.6862,0,0,1
67.46198,0.3598714,448.2182,0,0,1
-133.8937,3.878139,478.8618,0,0,1
-119.2682,1.150881,569.9512,1,0,0
-89.67578,0.07412815,597.7473,0,0,1
-58.14453,0.0741272,586.9356,0,0,1
-26.61334,0.0741272,576.1238,0,0,1
4.917758,0.07412708,565.3121,0,0,1
36.44896,0.07412696,554.5004,0,0,1
67.98016,0.07412672,543.6886,0,0,1
99.51137,0.0741272,532.8768,0,0,1
121.1468,0.4965844,510.5715,0,0,1
-135.1473,5.774765,488.2089,0,0,1
-119.1831,4.156775,568.2581,1,0,0
-82.91382,0.07412815,771.621,0,0,1
-35.617,0.07412624,755.4034,0,0,1
11.67975,0.07412708,739.1857,0,0,1
58.97655,0.0741272,722.9681,0,0,1
106.2734,0.07412672,706.7505,0,0,1
153.5702,0.0741272,690.5328,0,0,1
200.867,0.07412767,674.3152,0,0,1
248.1638,0.0741272,658.0975,0,0,1
-144.9857,7.262445,561.566,1,0,0
-119.0577,7.13866,565.7616,1,0,0
262.4309,2.954317,877.3021,0,0,1
269.1555,3.951207,769.6097,0,0,1
303.5611,4.28581,722.4396,0,0,1
-144.9857,10.07413,561.566,1,0,0
-118.9568,10.07413,563.7513,1,0,0
-144.6029,12.86005,558.7112,1,0,0
-119.1104,13.01935,566.8109,1,0,0
-144.9857,15.69749,561.566,1,0,0
-119.0511,15.94259,565.6288,1,0,0
-144.9857,18.50917,561.566,1,0,0
-118.9975,18.84706,564.5613,1,0,0
-144.9857,21.32086,561.566,1,0,0
-118.8117,21.63383,560.8629,1,0,0
-122.5632,0.0741272,472.7669,0,0,1
-103.9673,0.0741272,465.4053,0,0,1
-85.88568,0.3625832,452.0425,0,0,1
-67.40375,0.2465982,447.2209,0,0,1
-48.17963,0.0741272,443.3205,0,0,1
-29.58374,0.0741272,435.9588,0,0,1
-10.98785,0.0741272,428.5972,0,0,1
7.607949,0.07412732,421.2357,0,0,1
26.20383,0.0741272,413.8741,0,0,1
44.79971,0.0741272,406.5125,0,0,1
-124.6052,1.230472,496.2592,0,0,1
-104.1592,0.0741272,519.2566,0,0,1
-80.91431,0.07412624,510.0546,0,0,1
-57.66943,0.0741272,500.8525,0,0,1
-34.42462,0.07412815,491.6505,0,0,1
-11.17975,0.0741272,482.4485,0,0,1
12.06502,0.07412708,473.2466,0,0,1
35.30988,0.0741272,464.0446,0,0,1
56.16274,0.2220063,451.8134,0,0,1
81.22066,0.1054215,445.0283,0,0,1
-130.3855,1.650318,562.7576,1,0,0
-104.4423,0.3612362,598.7012,1,0,0
-73.48584,0.07412815,596.7394,0,0,1
-42.49274,0.0741272,584.47,0,0,1
-11.49957,0.07412624,572.2008,0,0,1
19.49351,0.0741272,559.9315,0,0,1
50.48664,0.07412696,547.6621,0,0,1
81.4798,0.0741272,535.3928,0,0,1
69.24924,2.07826,468.3858,0,0,1
125.5347,0.8010745,491.8914,0,0,1
-130.2164,4.49318,560.8126,1,0,0
-104.4225,3.702127,593.1406,1,0,0
-58.62891,0.0741272,770.1091,0,0,1
-12.13922,0.0741272,751.7051,0,0,1
34.35048,0.0741272,733.3011,0,0,1
80.84016,0.0741272,714.897,0,0,1
127.3299,0.07412672,696.4932,0,0,1
173.8196,0.0741272,678.0891,0,0,1
220.3093,0.0741272,659.6851,0,0,1
127.7477,3.832282,494.2316,0,0,1
-130.0392,7.301953,558.7744,1,0,0
-104.3907,6.971166,584.197,1,0,0
252.4559,2.360246,938.839,0,0,1
300.1461,3.840209,760.7887,0,0,1
325.1343,4.28581,702.9718,0,0,1
-129.9281,10.07413,557.4957,1,0,0
-104.3788,10.07413,580.8798,1,0,0
-129.7382,12.81521,555.3113,1,0,0
-104.3698,13.12284,578.3539,1,0,0
-129.6809,15.54446,554.652,1,0,0
-104.3638,16.13997,576.6535,1,0,0
-129.6236,18.26186,553.9926,1,0,0
-104.3591,19.13616,575.3349,1,0,0
-129.6001,20.98141,553.7226,1,0,0
-104.3575,22.14086,574.9048,1,0,0
-111.9971,0.0741272,473.4337,0,0,1
-93.77057,0.0741272,465.2002,0,0,1
-76.29614,0.346117,451.3373,0,0,1
-57.47687,0.1088963,448.0421,0,0,1
-39.09082,0.0741272,440.4995,0,0,1
-20.8642,0.0741272,432.2659,0,0,1
-2.637634,0.0741272,424.0323,0,0,1
15.58893,0.0741272,415.7988,0,0,1
33.8155,0.0741272,407.5652,0,0,1
52.04211,0.07412767,399.3317,0,0,1
-113.8415,0.3969812,520.2751,0,0,1
-91.41327,0.0741272,519.0002,0,0,1
-74.12726,1.664321,467.5685,0,0,1
-45.84674,0.0741272,498.4163,0,0,1
-23.06354,0.0741272,488.1243,0,0,1
-0.2803345,0.0741272,477.8323,0,0,1
22.50287,0.07412696,467.5404,0,0,1
45.28611,0.07412696,457.2485,0,0,1
66.67552,0.1555099,445.3537,0,0,1
90.85262,0.0741272,436.6646,0,0,1
-115.9109,1.404912,572.8325,1,0,0
-87.48444,0.0741272,608.6668,0,0,1
-57.10675,0.0741272,594.9442,0,0,1
-26.72913,0.07412624,581.2217,0,0,1
3.648482,0.0741272,567.4991,0,0,1
34.02613,0.07412696,553.7765,0,0,1
64.40379,0.0741272,540.054,0,0,1
94.78142,0.0741272,526.3313,0,0,1
121.374,0.2398772,508.256,0,0,1
131.421,1.006184,475.6885,0,0,1
-115.81,4.340509,570.2709,1,0,0
-79.62671,0.0741272,788.0003,0,0,1
-34.06024,0.0741272,767.4164,0,0,1
11.50616,0.0741272,746.8325,0,0,1
57.07265,0.0741272,726.2486,0,0,1
102.6391,0.0741272,705.6647,0,0,1
148.2056,0.0741272,685.0809,0,0,1
193.772,0.0741272,664.4969,0,0,1
239.3385,0.07412672,643.913,0,0,1
133.0142,3.987781,477.221,0,0,1
-115.7149,7.228947,567.8546,1,0,0
259.6355,2.857989,877.9208,0,0,1
269.0138,3.807311,769.5153,0,0,1
293.3444,4.28581,706.0188,0,0,1
135.1865,7.002968,479.3106,0,0,1
-115.6329,10.07413,565.7723,1,0,0
-115.7614,12.92988,569.0359,1,0,0
-115.7171,15.76549,567.9106,1,0,0
-115.6644,18.57526,566.5732,1,0,0
-115.4296,21.19545,560.6097,1,0,0
-98.64966,0.0741272,473.5605,0,0,1
-82.01178,0.552722,454,0,0,1
-64.31964,0.343338,449.4302,0,0,1
-45.54114,0.0741272,445.6412,0,0,1
-27.83826,0.0741272,436.3348,0,0,1
-10.13544,0.0741272,427.0284,0,0,1
7.567286,0.0741272,417.7219,0,0,1
25.27014,0.0741272,408.4155,0,0,1
42.97297,0.0741272,399.1091,0,0,1
60.67581,0.0741272,389.8027,0,0,1
-97.51215,0.0741272,529.4507,0,0,1
-75.38361,0.0741272,517.8176,0,0,1
-53.255,0.0741272,506.1846,0,0,1
-31.12646,0.0741272,494.5515,0,0,1
-8.997986,0.0741272,482.9185,0,0,1
13.13052,0.07412732,471.2855,0,0,1
35.25909,0.07412696,459.6524,0,0,1
57.06057,0.09449339,447.6161,0,0,1
79.51617,0.0741272,436.3864,0,0,1
101.6447,0.07412767,424.7533,0,0,1
-95.61621,0.0741272,622.6008,0,0,1
-66.11151,0.0741272,607.0901,0,0,1
-36.60675,0.0741272,591.5795,0,0,1
-7.102051,0.07412815,576.0687,0,0,1
22.4026,0.07412696,560.558,0,0,1
51.90733,0.07412696,545.0473,0,0,1
81.41205,0.0741272,529.5366,0,0,1
69.80283,1.994293,463.3286,0,0,1
125.6794,0.6792521,483.4769,0,0,1
39.31752,4.856117,371.5819,1,0,1
-91.97711,0.2083111,801.4017,0,0,1
-47.56744,0.0741272,785.6353,0,0,1
-3.310303,0.07412815,762.3691,0,0,1
40.94671,0.0741272,739.1031,0,0,1
85.20381,0.0741272,715.837,0,0,1
129.4609,0.0741272,692.5709,0,0,1
173.718,0.0741272,669.3049,0,0,1
217.9751,0.07412672,646.0387,0,0,1
128.6557,3.729432,486.5129,0,0,1
38.96972,6.603944,371.2852,1,0,1
-91.70923,5.023474,814.5634,0,0,1
239.9505,2.699648,902.746,0,0,1
130.4875,6.876715,488.3816,0,0,1
40.38889,8.321715,372.4959,1,0,1
-91.427,10.07413,828.4275,0,0,1
42.26023,10.07414,374.0923,1,0,1
42.98363,11.8582,374.7094,1,0,1
-96.02457,16.3819,602.5419,1,0,0
43.39459,13.65232,375.0601,1,0,1
-96.09486,19.44309,599.0883,1,0,0
39.23318,15.28906,371.5099,1,0,1
-96.11511,22.53045,598.0927,1,0,0
39.38464,17.03475,371.6391,1,0,1
-87.64258,0.5344934,462.7447,0,0,1
-71.19147,0.5184193,453.3323,0,0,1
-52.61377,0.09367943,452.1651,0,0,1
-35.32605,0.0741272,442.3361,0,0,1
-18.13751,0.0741272,432.111,0,0,1
-0.9489136,0.0741272,421.8859,0,0,1
16.23964,0.0741272,411.6608,0,0,1
33.42824,0.0741272,401.4357,0,0,1
50.61684,0.0741272,391.2106,0,0,1
67.80541,0.0741272,380.9856,0,0,1
-82.81488,0.0741272,528.7642,0,0,1
-61.3291,0.0741272,515.9828,0,0,1
-39.84338,0.0741272,503.2015,0,0,1
-18.35767,0.0741272,490.42,0,0,1
3.128024,0.0741272,477.6388,0,0,1
24.61375,0.0741272,464.8574,0,0,1
46.09949,0.0741272,452.076,0,0,1
67.58524,0.0741272,439.2946,0,0,1
89.07097,0.07412672,426.5133,0,0,1
110.5567,0.0741272,413.7319,0,0,1
-76.0199,0.07412815,621.6855,0,0,1
-47.37219,0.0741272,604.6437,0,0,1
-18.72461,0.07412815,587.6019,0,0,1
