16.33471,0.0741272,-76.8374,0,0,1
-16.94025,0.0741272,-78.80829,0,0,1
-50.21521,0.0741272,-80.77924,0,0,1
-83.4903,0.07412696,-82.75024,0,0,1
-116.2616,0.4455022,-72.29047,1,0,0
-144.107,1.340845,-44.04276,1,0,0
-147.2776,4.57234,63.67497,0,1,0
-216.5904,0.07412744,-90.63391,0,0,1
103.7339,2.660517,-109.0731,1,0,0
126.0145,0.0741272,-237.2997,0,0,1
-14.64254,5.135122,7.862248,1,0.92,0.016
26.18942,0.0741272,-243.2125,0,0,1
-23.72308,0.07412767,-246.1689,0,0,1
-73.63556,0.07412767,-249.1253,0,0,1
-116.1939,3.688298,-70.62086,1,0,0
-146.5449,3.904969,-61.56606,1,0,0
-147.5442,6.384079,62.54796,0,1,0
-270.6156,0.2311106,-252.9299,0,0,1
100.3534,6.42788,-103.2073,1,0,0
146.3259,4.63106,-280.481,0,0,1
-14.70882,7.606472,8.043449,1,0.92,0.016
36.26896,4.684622,-281.6343,0,0,1
-17.5611,4.686466,-284.638,0,0,1
-71.64612,4.737655,-282.7138,0,0,1
-116.0819,6.908731,-67.85767,1,0,0
-146.5449,6.989549,-61.56606,1,0,0
-147.6142,8.226192,62.25226,0,1,0
-275.429,5.01112,-267.3897,0,0,1
98.76357,10.07413,-100.4486,1,0,0
148.7536,10.07413,-285.642,0,0,1
-14.70882,10.07413,8.04345,1,0.92,0.016
37.8668,10.07413,-287.7249,0,0,1
-16.9071,10.07413,-288.721,0,0,1
-71.31219,10.07413,-288.3513,0,0,1
-115.9881,10.07413,-65.54276,1,0,0
-146.5449,10.07413,-61.56606,1,0,0
-147.7061,10.07412,61.86371,0,1,0
-277.2752,10.07413,-272.9356,0,0,1
97.56136,13.67036,-98.36256,1,0,0
150.4491,15.60714,-289.2468,0,0,1
-14.35695,12.5516,7.081381,1,0.92,0.016
39.7034,15.59635,-294.7258,0,0,1
-16.42279,15.5334,-291.7443,0,0,1
-71.0011,15.51969,-293.6039,0,0,1
-116.0671,13.23587,-67.49084,1,0,0
-146.5449,13.15871,-61.56606,1,0,0
-147.8281,11.93095,61.34791,0,1,0
-278.8815,15.23863,-277.761,0,0,1
96.87091,17.24186,-97.16436,1,0,0
152.0694,21.21083,-292.6913,0,0,1
-15.96857,21.04983,-294.58,0,0,1
-70.4931,21.13707,-302.1793,0,0,1
-116.0641,16.39615,-67.41727,1,0,0
-146.5449,16.24329,-61.56606,1,0,0
-148.059,13.80699,60.37208,0,1,0
-281.0588,20.53114,-284.3019,0,0,1
96.51367,20.80653,-96.54454,1,0,0
153.9893,26.90483,-296.773,0,0,1
-15.50043,26.62602,-297.5024,0,0,1
-115.9859,19.49952,-65.48776,1,0,0
-146.5449,19.32787,-61.56606,1,0,0
-148.4713,15.72489,58.6293,0,1,0
96.41853,24.37719,-96.37941,1,0,0
-14.93585,32.2854,-301.0271,0,0,1
-115.7669,22.42606,-60.08393,1,0,0
-132.9335,18.53794,36.27246,0,1,0
-149.0993,17.71301,55.97456,0,1,0
-5.66925,0.0741272,48.78411,0,0,1
-25.66772,0.0741272,49.03033,0,0,1
-45.6662,0.0741272,49.27655,0,0,1
-65.66467,0.0741272,49.5227,0,0,1
-85.66321,0.0741272,49.76891,0,0,1
-105.6617,0.0741272,50.01511,0,0,1
-125.6602,0.07412815,50.26132,0,0,1
-143.1353,0.668417,62.3633,0,1,0
-165.6572,0.07412624,50.75367,0,0,1
-185.6556,0.0741272,50.99988,0,0,1
18.71335,0.0741272,-1.519775,0,0,1
-6.284729,0.0741272,-1.212097,0,0,1
-31.28284,0.07412726,-0.9043579,0,0,1
-56.28088,0.0741272,-0.5966187,0,0,1
-81.27911,0.07412714,-0.2888794,0,0,1
-106.2772,0.0741272,0.01890957,0,0,1
-131.2753,0.0741272,0.3265991,0,0,1
-142.8979,2.594292,63.47878,0,1,0
-181.2715,0.0741272,0.9420812,0,0,1
-206.2696,0.07412624,1.249835,0,0,1
59.35104,0.0741272,-85.3598,0,0,1
26.02025,0.07412696,-84.94946,0,0,1
-31.32812,2.578847,-0.7464569,1,0.92,0.016
-40.6413,0.0741272,-84.12885,0,0,1
-73.97223,0.0741272,-83.71851,0,0,1
-107.303,0.07412744,-83.30823,0,0,1
-136.4751,1.185072,-45.9147,1,0,0
-142.8533,4.470566,63.68858,0,1,0
-207.2954,0.0741272,-82.07721,0,0,1
-240.6263,0.07412696,-81.66687,0,0,1
140.6264,0.0741272,-253.0398,0,0,1
90.63025,0.0741272,-252.4242,0,0,1
-31.99945,5.123948,1.595705,1,0.92,0.016
-9.362122,0.0741272,-251.1932,0,0,1
-59.35834,0.0741272,-250.5778,0,0,1
-107.3178,3.383455,-84.50836,1,0,0
-138.0377,3.869809,-59.81049,1,0,0
-143.0276,6.321991,62.86963,0,1,0
-258.8515,0.1056247,-246.5469,0,0,1
-299.4025,0.5561738,-223.5186,0,0,1
154.9871,4.779641,-282.6672,0,0,1
100.9512,4.807889,-279.1771,0,0,1
-32.06527,7.601326,1.825376,1,0.92,0.016
-3.007813,4.735546,-285.1321,0,0,1
-56.466,4.744264,-283.6023,0,0,1
-107.262,6.774147,-79.97314,1,0,0
-138.2351,6.954391,-61.56606,1,0,0
-143.2973,8.18535,61.60216,0,1,0
-265.1348,4.888674,-266.5912,0,0,1
-314.8472,4.940536,-260.7927,0,0,1
157.0785,10.07413,-286.9821,0,0,1
102.984,10.07413,-284.446,0,0,1
-32.06527,10.07413,1.825365,1,0.92,0.016
-2.100708,10.07413,-289.9771,0,0,1
-55.99963,10.07413,-288.9279,0,0,1
-107.2189,10.07413,-76.47571,1,0,0
-137.3965,10.07413,-54.1088,1,0,0
-143.4404,10.07412,60.92992,0,1,0
-266.9724,10.07413,-272.4533,0,0,1
-316.8961,10.07413,-265.7376,0,0,1
158.9555,15.44999,-290.8543,0,0,1
104.8733,15.44154,-289.3434,0,0,1
-31.72954,12.5586,0.6540624,1,0.92,0.016
-1.325378,15.50236,-294.1183,0,0,1
-55.59674,15.50313,-293.5273,0,0,1
-107.1862,13.31254,-73.81703,1,0,0
-137.2556,13.10665,-52.85577,1,0,0
-143.5816,11.97629,60.26634,0,1,0
-268.9086,15.38042,-278.6299,0,0,1
-318.9302,15.30676,-270.6467,0,0,1
161.2176,20.91863,-295.5215,0,0,1
108.1891,20.98001,-297.9382,0,0,1
-0.418396,21.02723,-298.9621,0,0,1
-55.06323,21.05383,-299.6193,0,0,1
-107.1651,16.5167,-72.10429,1,0,0
-137.144,16.11931,-51.86332,1,0,0
-143.81,13.89996,59.19353,0,1,0
-107.15,19.7011,-70.87487,1,0,0
-137.0656,19.12091,-51.16539,1,0,0
-144.2518,15.87531,57.11763,0,1,0
-107.1443,22.89157,-70.4118,1,0,0
-127.0605,18.57291,37.80804,0,1,0
-145.6805,18.07825,50.40489,0,1,0
-42.09167,0.0741272,34.90503,0,0,1
-61.74359,0.0741272,38.62022,0,0,1
-81.39551,0.0741272,42.33536,0,0,1
-101.0474,0.0741272,46.05049,0,0,1
-120.6993,0.07412815,49.76567,0,0,1
-139.3599,0.3409691,58.72482,0,1,0
-160.0032,0.0741272,57.19598,0,0,1
-179.6551,0.0741272,60.91113,0,0,1
-199.307,0.07412624,64.62629,0,0,1
-218.9589,0.0741272,68.34143,0,0,1
-26.8147,0.0741272,-18.86877,0,0,1
-51.37958,0.07412708,-14.22479,0,0,1
-75.94446,0.07412714,-9.580872,0,0,1
-100.5094,0.07412726,-4.93689,0,0,1
-125.0743,0.0741272,-0.2929077,0,0,1
-139.6452,2.226173,57.21602,0,1,0
-174.204,0.0741272,8.994997,0,0,1
-198.7689,0.0741272,13.63893,0,0,1
-223.3339,0.0741272,18.28285,0,0,1
-247.8987,0.07412624,22.92679,0,0,1
-1.352966,0.0741272,-108.4916,0,0,1
-34.1062,0.0741272,-102.2996,0,0,1
-66.85944,0.07412744,-96.10779,0,0,1
-99.61261,0.0741272,-89.91583,0,0,1
-130.5255,0.7050965,-62.66697,1,0,0
-139.8409,4.156548,56.18053,0,1,0
-197.8722,0.07412696,-71.34003,0,0,1
-230.6254,0.07412744,-65.14813,0,0,1
-263.3786,0.07412696,-58.95618,0,0,1
-257.9034,2.05557,7.226764,1,0.92,0.016
-32.43813,5.442224,0.9252073,1,0.92,0.016
-1.349976,0.2468886,-269.3199,0,0,1
-48.70978,0.07790852,-268.9654,0,0,1
-97.81903,0.07412767,-259.8737,0,0,1
-130.4039,3.855915,-61.27489,1,0,0
-139.8278,6.13048,56.24975,0,1,0
-245.2084,0.07412767,-232.0101,0,0,1
-287.9232,0.4097471,-206.8566,0,0,1
-343.468,0.0741272,-213.4343,0,0,1
-257.0244,4.758795,8.606147,1,0.92,0.016
-32.43813,7.758176,0.9252161,1,0.92,0.016
1.476815,5.024132,-283.7335,0,0,1
-47.3092,4.947543,-282.3052,0,0,1
-97.52563,4.801479,-287.6771,0,0,1
-130.1912,6.989327,-58.84151,1,0,0
-140.0596,8.089828,55.02373,0,1,0
-255.6163,4.707672,-267.337,0,0,1
-310.0958,4.661921,-261.694,0,0,1
-360.2976,4.723902,-245.8956,0,0,1
-256.8246,7.419916,8.919814,1,0.92,0.016
-32.43813,10.07413,0.9252167,1,0.92,0.016
2.653089,10.07413,-289.7311,0,0,1
-46.76672,10.07413,-287.4713,0,0,1
-99.54362,10.07413,-96.45479,1,0,0
-130.0701,10.07413,-57.45509,1,0,0
-140.2987,10.07413,53.75906,0,1,0
-257.1409,10.07413,-272.5118,0,0,1
-312.1108,10.07413,-266.6773,0,0,1
-365.1926,10.07413,-255.3372,0,0,1
-256.8246,10.07413,8.919814,1,0.92,0.016
-32.14647,12.39962,-0.1014012,1,0.92,0.016
3.646318,15.22879,-294.7956,0,0,1
-46.32428,15.29105,-291.6854,0,0,1
-99.62806,13.39313,-88.45456,1,0,0
-129.9085,13.12662,-55.60668,1,0,0
-160.4914,13.15834,-53.05323,1,0,0
-258.7669,15.55151,-278.0306,0,0,1
-314.0191,15.58896,-271.3969,0,0,1
-371.319,15.65371,-267.1539,0,0,1
-257.2971,12.7365,8.178262,1,0.92,0.016
-45.8587,20.59338,-296.1193,0,0,1
-99.67787,16.61956,-83.73412,1,0,0
-121.4973,14.2565,40.63561,0,1,0
-160.5517,16.24904,-53.37239,1,0,0
-258.1853,15.42957,6.784389,1,0.92,0.016
-99.69025,19.85779,-82.56205,1,0,0
-129.7517,19.17782,-53.81208,1,0,0
-160.7032,19.36097,-54.1736,1,0,0
-258.6932,18.13362,5.987345,1,0.92,0.016
-99.69473,23.10231,-82.13644,1,0,0
-129.7346,22.20459,-53.61688,1,0,0
-159.9978,22.30469,-50.44246,1,0,0
-257.8202,20.75979,7.357336,1,0.92,0.016
-61.8952,0.0741272,30.24118,0,0,1
-81.12811,0.07412815,35.72719,0,0,1
-100.361,0.0741272,41.21315,0,0,1
-119.5939,0.0741272,46.69918,0,0,1
-138.8267,0.0741272,52.18519,0,0,1
-158.0596,0.0741272,57.67113,0,0,1
-177.2925,0.0741272,63.15716,0,0,1
-196.5254,0.0741272,68.64312,0,0,1
-215.7582,0.0741272,74.1291,0,0,1
-234.9911,0.07412815,79.61511,0,0,1
-51.56903,0.07412708,-24.69855,0,0,1
-75.61023,0.0741272,-17.841,0,0,1
-99.65125,0.0741272,-10.98358,0,0,1
-123.6924,0.0741272,-4.125977,0,0,1
-147.7335,0.0741272,2.731442,0,0,1
-171.7745,0.0741272,9.588957,0,0,1
-195.8157,0.0741272,16.44641,0,0,1
-219.8568,0.0741272,23.3039,0,0,1
-243.8979,0.07412815,30.16141,0,0,1
-267.939,0.07412624,37.01885,0,0,1
-34.35883,0.0741272,-116.2648,0,0,1
-66.4137,0.0741272,-107.1214,0,0,1
-98.46844,0.0741272,-97.97809,0,0,1
-128.5179,0.8080754,-63.96601,1,0,0
-156.1577,1.155401,-44.04276,1,0,0
-194.6329,0.0741272,-70.54803,0,0,1
-226.6877,0.0741272,-61.40479,0,0,1
-258.7425,0.0741272,-52.26141,0,0,1
-258.5204,1.794669,7.314066,1,0.92,0.016
-322.8521,0.0741272,-33.97479,0,0,1
-4.863342,0.5510659,-273.1942,0,0,1
-49.4231,0.32829,-272.0669,0,0,1
-96.12695,0.1080766,-270.1951,0,0,1
-128.4003,3.925454,-62.50761,1,0,0
-138.227,6.141464,55.51551,0,1,0
-240.3495,0.0741272,-230.8221,0,0,1
-286.0276,0.2039118,-211.0448,0,0,1
-336.5139,0.0741272,-203.3923,0,0,1
-257.6094,4.586864,8.737552,1,0.92,0.016
-432.6783,0.0741272,-175.9623,0,0,1
-2.542969,5.200237,-285.54,0,0,1
-48.33667,5.102759,-282.6143,0,0,1
-95.88983,4.924053,-287.6339,0,0,1
-128.1954,7.02479,-59.96653,1,0,0
-159.3137,6.92405,-61.56606,1,0,0
-251.0649,4.683481,-268.3884,0,0,1
-306.4842,4.586832,-262.631,0,0,1
-358.7505,4.597589,-246.6038,0,0,1
-257.3527,7.335057,9.13859,1,0.92,0.016
-477.7944,4.389468,-234.29,0,0,1
-1.706055,10.07413,-289.9928,0,0,1
-47.82111,10.07413,-287.6196,0,0,1
-98.41165,10.07413,-102.1606,1,0,0
-119.9658,10.07414,42.08729,0,1,0
-158.9062,10.07413,-59.30329,1,0,0
-252.472,10.07413,-273.3215,0,0,1
-308.3824,10.07413,-267.4177,0,0,1
-363.5079,10.07413,-255.8487,0,0,1
-257.3527,10.07413,9.138583,1,0.92,0.016
-481.1837,10.07413,-238.6716,0,0,1
-0.9889526,15.02326,-293.8082,0,0,1
-47.40063,15.13032,-291.7018,0,0,1
-98.52095,13.37052,-94.1219,1,0,0
-120.0222,12.12638,41.38708,0,1,0
-159.3137,13.22421,-61.56606,1,0,0
-197.6708,13.51821,-81.19835,1,0,0
-174.6142,12.00182,69.91133,0,1,0
-257.8552,12.82213,8.353436,1,0.92,0.016
-483.8109,15.85009,-242.0681,0,0,1
-0.1738281,20.05134,-298.1449,0,0,1
-46.95343,20.26754,-296.0428,0,0,1
-98.58849,16.57175,-89.15456,1,0,0
-127.7173,16.05614,-54.03688,1,0,0
-159.3137,16.37428,-61.56606,1,0,0
-196.7872,16.89787,-78.10037,1,0,0
-174.7852,13.93875,69.47993,0,1,0
-258.7755,15.60283,6.915509,1,0.92,0.016
-486.3171,21.70212,-245.3085,0,0,1
-98.63342,19.72558,-85.84935,1,0,0
-127.7413,19.05593,-54.33456,1,0,0
-159.3137,19.52436,-61.56606,1,0,0
-196.2016,20.2457,-76.04749,1,0,0
-259.1434,18.38679,6.340729,1,0.92,0.016
-489.2835,27.65117,-249.1437,0,0,1
-98.64956,22.89728,-84.66304,1,0,0
-127.7455,22.05191,-54.3866,1,0,0
-159.1071,22.62804,-60.41878,1,0,0
-195.9687,23.60224,-75.23089,1,0,0
-258.2405,21.09351,7.751461,1,0.92,0.016
-492.7397,33.71996,-253.6118,0,0,1
-78.69946,0.0741272,27.73947,0,0,1
-97.46033,0.0741272,34.66985,0,0,1
-116.2212,0.0741272,41.60024,0,0,1
-134.9821,0.0741272,48.53068,0,0,1
-153.7429,0.0741272,55.46108,0,0,1
-172.5038,0.0741272,62.39148,0,0,1
-191.2646,0.0741272,69.32187,0,0,1
-210.0254,0.0741272,76.25228,0,0,1
-228.7863,0.0741272,83.18268,0,0,1
-247.5471,0.0741272,90.11308,0,0,1
-72.5744,0.07412708,-27.82568,0,0,1
-96.02551,0.0741272,-19.16272,0,0,1
-119.4766,0.0741272,-10.49963,0,0,1
-142.9276,0.0741272,-1.83667,0,0,1
-152.2028,2.317884,61.38884,0,1,0
-189.8298,0.0741272,15.48937,0,0,1
-213.2808,0.07412815,24.15234,0,0,1
-236.7318,0.0741272,32.81537,0,0,1
-260.183,0.0741272,41.47835,0,0,1
-283.634,0.0741272,50.14133,0,0,1
-62.36603,0.0741272,-120.4343,0,0,1
-93.63403,0.0741272,-108.8835,0,0,1
-123.0389,0.9327159,-67.51129,1,0,0
-149.5858,1.317178,-44.04276,1,0,0
-152.0552,4.27446,61.95697,0,1,0
-218.7064,0.0741272,-62.68097,0,0,1
-249.9745,0.0741272,-51.13025,0,0,1
-254.2032,1.592828,4.398946,1,0.92,0.016
-312.5107,0.07412732,-28.02875,0,0,1
-343.7788,0.0741272,-16.47821,0,0,1
-45.4328,0.6428819,-274.0484,0,0,1
-89.30176,0.3881097,-271.4229,0,0,1
-122.9421,4.009584,-65.96234,1,0,0
-152.3501,3.888252,-61.56606,1,0,0
-151.9167,6.218645,62.49013,0,1,0
-276.4597,0.0741272,-219.0214,0,0,1
-313.6131,0.5169277,-181.6943,0,0,1
-253.0979,4.461318,6.196797,1,0.92,0.016
-399.5253,0.6359978,-143.6108,0,0,1
-464.0682,0.0741272,-149.7173,0,0,1
-44.49121,5.281646,-282.5898,0,0,1
-88.95996,5.112007,-284.2469,0,0,1
-122.7825,7.066368,-63.4082,1,0,0
-152.3501,6.981189,-61.56606,1,0,0
-152.518,8.122593,60.17572,0,1,0
-293.8525,4.572202,-266.104,0,0,1
-347.8582,4.517805,-251.953,0,0,1
-252.7464,7.274303,6.768504,1,0.92,0.016
-467.8105,4.267603,-234.3144,0,0,1
-540.7439,4.011751,-234.6473,0,0,1
-43.97986,10.07413,-287.2291,0,0,1
-88.78784,10.07413,-290.7057,0,0,1
-122.6711,10.07413,-61.62505,1,0,0
-152.3501,10.07413,-61.56606,1,0,0
-152.7268,10.07412,59.37218,0,1,0
-295.3482,10.07413,-270.153,0,0,1
-351.233,10.07413,-258.877,0,0,1
-252.7464,10.07413,6.7685,1,0.92,0.016
-471.0931,10.07413,-238.6748,0,0,1
-543.8038,10.07413,-238.0366,0,0,1
-43.55432,14.94309,-291.0895,0,0,1
-88.65057,15.14406,-295.8548,0,0,1
-122.7269,13.07335,-62.51837,1,0,0
-152.3501,13.16707,-61.56606,1,0,0
-153.1262,12.04971,57.83486,0,1,0
-296.6887,15.6579,-273.7819,0,0,1
-253.3646,12.88553,5.762943,1,0.92,0.016
-473.8102,15.9762,-242.2837,0,0,1
-546.1805,16.21183,-240.6691,0,0,1
-43.12421,19.88228,-294.9914,0,0,1
-88.50812,20.31327,-301.1993,0,0,1
-122.7269,16.07257,-62.51837,1,0,0
-152.3501,16.26,-61.56606,1,0,0
-154.0973,14.10214,54.09724,0,1,0
-298.1979,21.32878,-277.8672,0,0,1
-254.4798,15.73868,3.94909,1,0.92,0.016
-476.5208,21.9646,-245.8843,0,0,1
-548.4482,22.41238,-243.1811,0,0,1
-42.56512,24.92328,-300.0635,0,0,1
-122.7144,19.06601,-62.31784,1,0,0
-152.3501,19.35295,-61.56606,1,0,0
-154.8679,16.20767,51.13108,0,1,0
-170.849,15.93085,66.87112,0,1,0
-254.782,18.58793,3.45772,1,0.92,0.016
-479.9102,28.07177,-250.3864,0,0,1
-551.0599,28.69005,-246.0739,0,0,1
-122.322,21.82228,-56.03907,1,0,0
-152.3501,22.44588,-61.56606,1,0,0
-154.809,18.24288,51.35785,0,1,0
-253.696,21.34454,5.224029,1,0.92,0.016
-493.6152,34.94401,-268.5908,0,0,1
-93.63983,0.0741272,26.59762,0,0,1
-111.8944,0.0741272,34.76894,0,0,1
-130.149,0.0741272,42.94024,0,0,1
-145.7152,0.6688461,62.93992,0,1,0
-166.6581,0.0741272,59.28283,0,0,1
-184.9127,0.0741272,67.45416,0,0,1
-203.1674,0.0741272,75.62543,0,0,1
-221.4219,0.0741272,83.79678,0,0,1
-239.6765,0.0741272,91.96806,0,0,1
-257.9311,0.0741272,100.1394,0,0,1
-91.24988,0.0741272,-29.25299,0,0,1
-114.0681,0.0741272,-19.03876,0,0,1
-136.8864,0.0741272,-8.824646,0,0,1
-145.584,2.573122,63.51723,0,1,0
-182.5228,0.07412815,11.60356,0,0,1
-205.3409,0.0741272,21.81771,0,0,1
-228.1592,0.07412815,32.03182,0,0,1
-250.9775,0.0741272,42.24597,0,0,1
-273.7957,0.07412624,52.46006,0,0,1
-296.614,0.0741272,62.67421,0,0,1
-87.26654,0.07412744,-122.3373,0,0,1
-116.2218,1.087917,-72.35187,1,0,0
-141.4701,1.553609,-44.04276,1,0,0
-145.4559,4.465374,64.08092,0,1,0
-208.9638,0.0741272,-67.86182,0,0,1
-239.3881,0.0741272,-54.24316,0,0,1
-269.8124,0.07412696,-40.62427,0,0,1
-300.2368,0.0741272,-27.00537,0,0,1
-330.6611,0.0741272,-13.3866,0,0,1
-309.9842,2.055672,49.72478,0,0,0
-80.80878,0.7053976,-273.2491,0,0,1
-116.1373,4.122208,-70.25945,1,0,0
-143.7508,4.055265,-61.56606,1,0,0
-145.603,6.321949,63.43391,0,1,0
-261.8459,0.0741272,-226.7928,0,0,1
-295.9012,0.641046,-180.4923,0,0,1
-322.3714,1.304424,-132.3033,0,0,1
-381.5366,0.6567128,-141.3012,0,0,1
-443.1672,0.1100154,-143.6619,0,0,1
-311.3199,4.693965,48.4311,0,0,0
-80.41431,5.307233,-282.4678,0,0,1
-116.0351,7.121691,-67.72815,1,0,0
-143.7508,7.064696,-61.56606,1,0,0
-145.8696,8.186235,62.26083,0,1,0
-275.1964,4.653363,-266.9163,0,0,1
-329.909,4.525214,-256.4655,0,0,1
-381.3226,4.509869,-235.1325,0,0,1
-450.15,4.204669,-237.7615,0,0,1
-522.5659,3.928523,-235.601,0,0,1
-311.7964,7.377888,47.96965,0,0,0
-80.18304,10.07413,-287.872,0,0,1
-115.9478,10.07413,-65.5688,1,0,0
-143.7508,10.07413,-61.56606,1,0,0
-145.9686,10.07412,61.82514,0,1,0
-277.2007,10.07413,-272.94,0,0,1
-332.7272,10.07413,-262.7613,0,0,1
-389.2387,10.07413,-248.9408,0,0,1
-453.1272,10.07413,-241.947,0,0,1
-526.1163,10.07413,-239.7119,0,0,1
-310.3143,10.07412,49.40515,0,0,0
-79.9809,14.93169,-292.5959,0,0,1
-116.0267,13.02465,-67.52184,1,0,0
-143.7508,13.08356,-61.56606,1,0,0
-146.1031,11.97234,61.23346,0,1,0
-278.9316,15.61261,-278.1419,0,0,1
-336.108,15.77477,-270.3139,0,0,1
-392.3769,15.85954,-254.4146,0,0,1
-455.2407,16.02971,-244.9184,0,0,1
-528.6837,16.30938,-242.6849,0,0,1
-311.5462,12.76714,48.21199,0,0,0
-79.72119,19.89791,-298.664,0,0,1
-116.024,15.97389,-67.45316,1,0,0
-143.7508,16.09299,-61.56606,1,0,0
-146.3283,13.89049,60.24239,0,1,0
-281.5014,21.31308,-285.8652,0,0,1
-396.5569,21.81221,-261.7058,0,0,1
-457.2388,22.05289,-247.7274,0,0,1
-531.0157,22.61299,-245.3852,0,0,1
-316.975,15.60049,42.95406,0,0,0
-115.9807,18.89392,-66.38226,1,0,0
-143.7508,19.10242,-61.56606,1,0,0
-146.7082,15.84909,58.57091,0,1,0
-459.4517,28.15458,-250.8383,0,0,1
-533.4708,28.99036,-248.228,0,0,1
-115.7354,21.60816,-60.31006,1,0,0
-131.0327,18.33643,36.15102,0,1,0
-147.3105,17.88066,55.92118,0,1,0
-463.302,34.44195,-256.2514,0,0,1
-536.5651,35.47715,-251.8112,0,0,1
-107.9302,0.0741272,26.44323,0,0,1
-125.6255,0.0741272,35.7639,0,0,1
-140.546,0.7657223,59.25674,0,1,0
-161.0162,0.0741272,54.40535,0,0,1
-178.7115,0.0741272,63.72604,0,0,1
-196.4069,0.0741272,73.04675,0,0,1
-214.1021,0.0741272,82.36746,0,0,1
-231.7974,0.0741272,91.68819,0,0,1
-249.4928,0.0741272,101.0089,0,0,1
-267.1881,0.0741272,110.3296,0,0,1
-109.1128,0.0741272,-29.44598,0,0,1
-131.2319,0.0741272,-17.79517,0,0,1
-140.9851,2.539894,57.01437,0,1,0
-175.4703,0.0741272,5.506694,0,0,1
-197.5895,0.07412815,17.15757,0,0,1
-219.7086,0.07412815,28.80849,0,0,1
-241.8277,0.07412815,40.45935,0,0,1
-263.9469,0.0741272,52.11026,0,0,1
-286.0661,0.0741272,63.76112,0,0,1
-308.1852,0.0741272,75.41199,0,0,1
-110.2171,1.173518,-81.63191,1,0,0
-134.3802,1.731835,-47.87,1,0,0
-140.2038,4.540268,61.00491,0,1,0
-199.5604,0.0741272,-75.99103,0,0,1
-229.0527,0.07412696,-60.45654,0,0,1
-258.5449,0.07412696,-44.92206,0,0,1
-263.8129,1.384693,7.228091,1,0.92,0.016
-317.5293,0.0741272,-13.85297,0,0,1
-309.9712,1.593697,39.41516,0,0,0
-333.4385,1.650163,53.90349,0,0,0
-110.1609,4.187912,-78.97581,1,0,0
-135.4737,4.317553,-58.31639,1,0,0
-140.4664,6.358683,59.66371,0,1,0
-247.7408,0.0741272,-238.9866,0,0,1
-286.8568,0.3454676,-203.049,0,0,1
-336.2174,0.0741272,-192.3831,0,0,1
-262.0736,4.343905,9.857089,1,0.92,0.016
-413.5519,0.4207013,-132.0629,0,0,1
-313.0005,4.337678,36.32989,0,0,0
-334.5641,4.4307,52.94487,0,0,0
-110.0806,7.164991,-75.1786,1,0,0
-135.2732,7.213727,-56.40087,1,0,0
-140.7118,8.20418,58.41014,0,1,0
-256.117,4.78438,-267.3231,0,0,1
-310.5496,4.582273,-261.4947,0,0,1
-363.0531,4.4983,-243.3304,0,0,1
-261.4685,7.219929,10.7718,1,0.92,0.016
-495.3957,3.974549,-232.8177,0,0,1
-310.8808,7.234893,38.48875,0,0,0
-333.4982,7.265413,53.85262,0,0,0
-110.0162,10.07413,-72.13795,1,0,0
-135.1043,10.07413,-54.78785,1,0,0
-140.8239,10.07412,57.83748,0,1,0
-257.6412,10.07413,-272.48,0,0,1
-312.6122,10.07413,-266.583,0,0,1
-368.8308,10.07413,-254.2993,0,0,1
-261.4685,10.07413,10.77181,1,0.92,0.016
-499.0593,10.07413,-237.3278,0,0,1
-310.1886,10.07413,39.19366,0,0,0
-331.8242,10.07413,55.27843,0,0,0
-109.967,12.93524,-69.81038,1,0,0
-135.0965,12.91877,-54.7128,1,0,0
-141.019,11.95938,56.84094,0,1,0
-259.2598,15.47259,-277.9554,0,0,1
-314.5882,15.67295,-271.4573,0,0,1
-374.2179,15.88953,-264.5269,0,0,1
-262.4475,12.94598,9.29195,1,0.92,0.016
-501.9534,16.27569,-240.8907,0,0,1
-312.1102,12.93019,37.23671,0,0,0
-332.3173,12.86845,54.85846,0,0,0
-109.9315,15.76632,-68.13214,1,0,0
-134.9775,15.74219,-53.57582,1,0,0
-162.287,15.96501,-51.78305,1,0,0
-264.1973,15.88095,6.647132,1,0.92,0.016
-504.6209,22.56023,-244.1746,0,0,1
-318.0087,15.94752,31.22934,0,0,0
-334.7006,15.72089,52.82854,0,0,0
-109.9042,18.57781,-66.84264,1,0,0
-125.0912,15.93116,40.86841,0,1,0
-162.1484,18.88973,-51.07538,1,0,0
-264.4471,18.79787,6.269491,1,0.92,0.016
-507.3286,28.92962,-247.5078,0,0,1
-578.043,29.54914,-233.6006,0,0,1
-337.1419,18.6336,50.74929,0,0,0
-109.8931,21.39369,-66.32061,1,0,0
-125.2462,17.93882,39.38725,0,1,0
-162.0886,21.81634,-50.76992,1,0,0
-262.7724,21.58498,8.800921,1,0.92,0.016
-510.5557,35.41553,-251.4805,0,0,1
-338.4595,21.55103,49.62708,0,0,0
-121.9907,0.0741272,27.18413,0,0,1
-139.0644,0.0741272,37.60006,0,0,1
-156.138,0.0741272,48.01597,0,0,1
-173.2116,0.0741272,58.43188,0,0,1
-190.2853,0.0741272,68.84781,0,0,1
-207.3589,0.0741272,79.26372,0,0,1
-224.4325,0.0741272,89.67963,0,0,1
-241.5062,0.0741272,100.0956,0,0,1
-258.5798,0.0741272,110.5115,0,0,1
-275.6534,0.0741272,120.9274,0,0,1
-126.6885,0.0741272,-28.51984,0,0,1
-148.0306,0.0741272,-15.49988,0,0,1
-152.7711,2.582922,60.86226,0,1,0
-190.7146,0.0741272,10.53984,0,0,1
-212.0566,0.0741272,23.55976,0,0,1
-233.3987,0.0741272,36.57969,0,0,1
-254.7407,0.07412815,49.59954,0,0,1
-276.0827,0.0741272,62.61945,0,0,1
-297.4248,0.07412624,75.63934,0,0,1
-318.7669,0.07412624,88.65921,0,0,1
-129.6179,1.638796,-63.2543,1,0,0
-152.8502,1.767831,-44.04276,1,0,0
-152.6275,4.472,61.41021,0,1,0
-219.8863,0.07412696,-69.28027,0,0,1
-248.3423,0.0741272,-51.92023,0,0,1
-253.8037,1.398715,3.132098,1,0.92,0.016
-305.2543,0.07412708,-17.20056,0,0,1
-333.7104,0.0741272,0.1592407,0,0,1
-320.1878,1.695127,55.20442,0,0,0
-390.6224,0.07412815,34.879,0,0,1
-129.4541,4.485425,-61.31289,1,0,0
-155.809,4.206592,-61.56606,1,0,0
-152.4893,6.349813,61.93738,0,1,0
-278.2295,0.0741272,-228.9202,0,0,1
-308.8206,0.6295791,-177.7251,0,0,1
-252.6762,4.333817,4.980236,1,0.92,0.016
-396.1682,0.4078155,-137.4266,0,0,1
-448.9657,0.0741272,-124.7612,0,0,1
-320.3112,4.484954,55.09359,0,0,0
-365.2765,3.995332,53.84908,0,0,0
-129.277,7.298632,-59.21232,1,0,0
-155.8091,7.140359,-61.56606,1,0,0
-153.0656,8.190197,59.7387,0,1,0
-291.9193,4.683055,-266.3788,0,0,1
-345.0679,4.519401,-253.1255,0,0,1
-252.2768,7.211641,5.634925,1,0.92,0.016
-469.1743,4.036575,-233.9713,0,0,1
-548.2523,3.638381,-232.3735,0,0,1
-320.1869,7.281148,55.20528,0,0,0
-368.1888,7.000963,51.6694,0,0,0
-120.9897,10.07416,39.05437,0,1,0
-155.8091,10.07413,-61.56606,1,0,0
-153.3477,10.07412,58.66234,0,1,0
-293.4249,10.07413,-270.4984,0,0,1
-348.1483,10.07413,-259.5333,0,0,1
-252.2768,10.07413,5.634896,1,0.92,0.016
-472.699,10.07413,-238.6323,0,0,1
-551.2296,10.07413,-235.6006,0,0,1
-319.7112,10.07413,55.63226,0,0,0
-364.0418,10.07413,54.77325,0,0,0
-121.0222,11.97104,38.66875,0,1,0
-155.3186,12.98055,-58.66124,1,0,0
-153.9255,11.99053,56.45757,0,1,0
-294.7431,15.54586,-274.1052,0,0,1
-252.9178,12.94892,4.584175,1,0.92,0.016
-475.5833,16.21741,-242.4466,0,0,1
-553.631,16.58765,-238.2032,0,0,1
-319.6855,12.86067,55.6554,0,0,0
-364.8934,13.10907,54.13586,0,0,0
-120.8525,13.83183,40.681,0,1,0
-155.809,15.94166,-61.56606,1,0,0
-154.8016,13.97314,53.11504,0,1,0
-296.2018,21.10094,-278.0964,0,0,1
-254.055,15.86739,2.720186,1,0.92,0.016
-478.4518,22.45534,-246.2399,0,0,1
-556.0664,23.17162,-240.8431,0,0,1
-327.7197,15.85402,48.44279,0,0,0
-653.2574,22.83251,-161.6895,0,0,1
-128.8494,18.26409,-54.14217,1,0,0
-155.8091,18.87543,-61.56606,1,0,0
-185.3079,19.38023,-63.28063,1,0,0
-170.0784,15.8056,67.00519,0,1,0
-254.2328,18.77426,2.428658,1,0.92,0.016
-482.1124,28.82711,-251.0808,0,0,1
-559.1088,29.85234,-244.1406,0,0,1
-333.2097,18.95597,43.51429,0,0,0
-368.5556,19.30638,51.39487,0,0,0
-128.8261,20.98416,-53.8662,1,0,0
-155.8091,21.8092,-61.56606,1,0,0
-184.5228,22.36362,-60.28514,1,0,0
-253.1273,21.58939,4.240875,1,0.92,0.016
-492.6074,35.77066,-264.9596,0,0,1
-335.627,22.04103,41.34425,0,0,0
-137.5225,0.0741272,29.04305,0,0,1
-148.3021,1.165277,63.47309,0,1,0
-170.1298,0.0741272,52.2113,0,0,1
-186.4335,0.0741272,63.79537,0,0,1
-202.7371,0.0741272,75.37948,0,0,1
-219.0408,0.0741272,86.96359,0,0,1
-235.3444,0.0741272,98.54768,0,0,1
-251.648,0.0741272,110.1318,0,0,1
-267.9517,0.0741272,121.7159,0,0,1
-284.2553,0.0741272,133.3,0,0,1
-146.1033,0.0741272,-26.19623,0,0,1
-148.8541,2.85981,61.19011,0,1,0
-186.8624,0.0741272,2.764076,0,0,1
-207.2419,0.0741272,17.24425,0,0,1
-227.6214,0.0741272,31.72436,0,0,1
-248.001,0.07412624,46.20448,0,0,1
-268.3806,0.07412815,60.68464,0,0,1
-288.7601,0.0741272,75.16476,0,0,1
-309.1396,0.0741272,89.64485,0,0,1
-329.4871,0.07554531,104.1457,0,0,1
-148.8756,2.089512,-44.04276,1,0,0
-148.7087,4.680624,61.79136,0,1,0
-214.7499,0.0741272,-79.64783,0,0,1
-241.9226,0.0741272,-60.341,0,0,1
-269.0953,0.0741272,-41.03424,0,0,1
-296.2681,0.0741272,-21.72729,0,0,1
-323.4408,0.07412714,-2.420471,0,0,1
-311.7455,1.645105,53.5079,0,0,0
-353.9727,0.9413753,54.73558,0,0,0
-404.959,0.0741272,55.50003,0,0,1
-151.5976,4.433825,-61.56606,1,0,0
-148.6513,6.482985,62.02874,0,1,0
-270.5249,0.07412767,-244.4717,0,0,1
-298.7597,0.6760173,-187.4929,0,0,1
-320.9697,1.322842,-132.0384,0,0,1
-379.647,0.5283797,-139.076,0,0,1
-433.5614,0.0741272,-128.6307,0,0,1
-312.6539,4.430304,52.65204,0,0,0
-352.5466,4.02025,55.84596,0,0,0
-555.8387,0.07412732,-41.75,0,0,1
-151.5976,7.253976,-61.56606,1,0,0
-148.6342,8.279234,62.0995,0,1,0
-278.3288,4.840932,-267.5334,0,0,1
-329.6717,4.632297,-256.647,0,0,1
-379.8391,4.515625,-235.3143,0,0,1
-449.7177,4.09148,-237.6946,0,0,1
-526.8995,3.661462,-235.6065,0,0,1
-312.6989,7.251607,52.60958,0,0,0
-353.3744,7.037143,55.20145,0,0,0
-645.4652,4.084083,-99.51904,0,0,1
-151.5976,10.07413,-61.56606,1,0,0
-148.7339,10.07413,61.68742,0,1,0
-280.0627,10.07413,-272.6571,0,0,1
-332.4253,10.07413,-262.8069,0,0,1
-387.8915,10.07413,-249.4408,0,0,1
-452.7978,10.07413,-242.0295,0,0,1
-530.4006,10.07413,-239.6193,0,0,1
-311.955,10.07416,53.3105,0,0,0
-352.8181,10.07412,55.63465,0,0,0
-649.0607,10.07413,-101.8366,0,0,1
-151.5976,12.89428,-61.56606,1,0,0
-148.8634,11.87806,61.1517,0,1,0
-281.5639,15.40399,-277.0936,0,0,1
-335.6902,15.66058,-270.1113,0,0,1
-391.0541,15.85797,-254.9891,0,0,1
-454.9586,16.14726,-245.0707,0,0,1
-532.9719,16.5787,-242.566,0,0,1
-312.657,12.89609,52.64915,0,0,0
-351.782,13.09179,56.44139,0,0,0
-652.04,16.1368,-103.7569,0,0,1
-151.5976,15.71443,-61.56606,1,0,0
-149.1291,13.703,60.05268,0,1,0
-283.5397,20.85194,-282.9326,0,0,1
-395.486,21.81992,-262.7638,0,0,1
-456.9949,22.2907,-247.9366,0,0,1
-535.4105,23.15709,-245.361,0,0,1
-318.0081,15.86223,47.60724,0,0,0
-354.432,16.17377,54.37796,0,0,0
-654.7665,22.25971,-105.5143,0,0,1
-151.5976,18.53458,-61.56606,1,0,0
-149.511,15.56271,58.47332,0,1,0
-459.2642,28.51653,-251.1304,0,0,1
-538.0614,29.81893,-248.3994,0,0,1
-333.7153,19.39117,32.80794,0,0,0
-371.6734,19.85151,40.95298,0,0,0
-657.424,28.44056,-107.2272,0,0,1
-151.5976,21.35473,-61.56606,1,0,0
-150.2404,17.50749,55.45681,0,1,0
-542.08,36.64381,-253.0049,0,0,1
-660.4723,34.6974,-109.1918,0,0,1
-144.588,1.530697,63.50047,0,1,0
-167.1702,0.0741272,44.31144,0,0,1
-182.6961,0.0741272,56.91885,0,0,1
-198.222,0.0741272,69.52624,0,0,1
-213.7479,0.0741272,82.13365,0,0,1
-229.2738,0.0741272,94.74107,0,0,1
-244.7997,0.0741272,107.3485,0,0,1
-260.3256,0.0741272,119.9559,0,0,1
-275.8515,0.0741272,132.5633,0,0,1
-291.3774,0.0741272,145.1707,0,0,1
-144.4498,3.262207,64.12338,0,1,0
-183.1628,0.0741272,-7.110718,0,0,1
-202.5702,0.0741272,8.648544,0,0,1
-221.9776,0.0741272,24.40782,0,0,1
-241.3849,0.07412815,40.16708,0,0,1
-260.7923,0.0741272,55.92635,0,0,1
-280.1997,0.0741272,71.68559,0,0,1
-299.6071,0.0741272,87.44485,0,0,1
-319.0144,0.0741272,103.2041,0,0,1
-307.3681,1.394314,136.2626,0,0,1
-144.4743,4.962135,64.01273,0,1,0
-209.8172,0.0741272,-92.81427,0,0,1
-235.6937,0.0741272,-71.80194,0,0,1
-261.5703,0.0741272,-50.78967,0,0,1
-262.7845,1.412668,7.672107,1,0.92,0.016
-313.3232,0.0741272,-8.764832,0,0,1
-321.5843,0.8205481,29.99367,0,0,0
-365.0761,0.0741272,33.25981,0,0,1
-390.9526,0.07412815,54.27214,0,0,1
-384.053,1.119185,93.54332,0,0,1
-144.6439,6.652132,63.24858,0,1,0
-260.4449,0.241775,-255.6005,0,0,1
-292.1473,0.5669003,-208.9166,0,0,1
-340.7554,0.0741272,-201.1843,0,0,1
-261.2008,4.357127,10.07699,1,0.92,0.016
-409.379,0.3598592,-127.0568,0,0,1
-313.0486,4.146195,38.59276,0,0,0
-340.8176,4.025041,53.33725,0,0,0
-534.8291,0.07412732,-43.5918,0,0,1
-573.6438,0.0741272,-12.07324,0,0,1
-144.8902,8.352961,62.13906,0,1,0
-263.9341,5.048862,-266.8196,0,0,1
-313.6082,4.780591,-261.0411,0,0,1
-363.1385,4.603015,-243.6961,0,0,1
-260.8616,7.221764,10.59203,1,0.92,0.016
-495.1845,3.855803,-232.7251,0,0,1
-310.8808,7.141102,40.7766,0,0,0
-340.7447,7.050511,53.39753,0,0,0
-641.9279,3.833494,-116.4396,0,0,1
-660.9359,4.146366,-60.7016,0,0,1
-145.0154,10.07413,61.57488,0,1,0
-265.6779,10.07413,-272.4264,0,0,1
-315.643,10.07413,-265.983,0,0,1
-368.735,10.07413,-254.3254,0,0,1
-260.8616,10.07413,10.59202,1,0.92,0.016
-498.9291,10.07413,-237.3367,0,0,1
-310.1886,10.07413,41.47394,0,0,0
-338.9087,10.07413,54.91709,0,0,0
-645.7646,10.07413,-119.0494,0,0,1
-667.5089,10.07413,-64.36328,0,0,1
-145.1204,11.80479,61.10139,0,1,0
-267.4868,15.21046,-278.2429,0,0,1
-317.703,15.47068,-270.9866,0,0,1
-373.9501,15.7728,-264.2301,0,0,1
-261.4387,12.93693,9.71574,1,0.92,0.016
-501.8694,16.3985,-240.9575,0,0,1
-312.5067,13.03045,39.1386,0,0,0
-339.612,13.08334,54.33506,0,0,0
-648.9341,16.39592,-121.2052,0,0,1
-672.4124,16.12386,-67.09485,0,0,1
-145.3164,13.55164,60.21816,0,1,0
-263.1718,15.86245,7.083997,1,0.92,0.016
-504.5846,22.80902,-244.3015,0,0,1
-318.7387,16.1628,32.86032,0,0,0
-341.3883,16.13777,52.86487,0,0,0
-651.829,22.78478,-123.1744,0,0,1
-679.452,22.32324,-71.01648,0,0,1
-145.6279,15.32898,58.81474,0,1,0
-263.4468,18.77153,6.66649,1,0.92,0.016
-507.3675,29.3089,-247.7284,0,0,1
-343.7434,19.25952,50.91567,0,0,0
-654.6287,29.2374,-125.0787,0,0,1
-146.1233,17.16239,56.58243,0,1,0
-261.7874,21.55058,9.186238,1,0.92,0.016
-510.6917,35.93143,-251.8223,0,0,1
-345.5477,22.41319,49.42234,0,0,0
-657.7876,35.77153,-127.2274,0,0,1
-168.3146,0.0741272,36.084,0,0,1
-182.8234,0.0741272,49.84982,0,0,1
-197.332,0.0741272,63.61567,0,0,1
-211.8407,0.0741272,77.38151,0,0,1
-226.3494,0.0741272,91.14732,0,0,1
-240.858,0.0741272,104.9132,0,0,1
-255.3668,0.0741272,118.679,0,0,1
-269.8754,0.0741272,132.4448,0,0,1
-284.384,0.0741272,146.2107,0,0,1
-298.8928,0.07412815,159.9765,0,0,1
-184.5934,0.07412732,-17.39496,0,0,1
-202.7292,0.0741272,-0.1876221,0,0,1
-220.8651,0.07412624,17.0196,0,0,1
-239.0009,0.0741272,34.22689,0,0,1
-257.1368,0.0741272,51.43417,0,0,1
-275.2726,0.0741272,68.6415,0,0,1
-293.4085,0.0741272,85.84875,0,0,1
-311.5444,0.0741272,103.0561,0,0,1
-307.6993,1.044673,132.8549,0,0,1
-315.2566,1.405169,152.4488,0,0,1
-211.7246,0.0741272,-106.5266,0,0,1
-235.9057,0.07412744,-83.58356,0,0,1
-260.0869,0.0741272,-60.6405,0,0,1
-256.5337,1.605834,6.369334,1,0.92,0.016
-308.4491,0.0741272,-14.75439,0,0,1
-332.6302,0.0741272,8.18865,0,0,1
-356.8115,0.07412624,31.13169,0,0,1
-380.9925,0.07412815,54.07475,0,0,1
-379.0909,0.9378681,91.959,0,0,1
-429.3548,0.0741272,99.96088,0,0,1
-258.2422,0.5498919,-259.3466,0,0,1
-294.8232,0.4476633,-231.6846,0,0,1
-338.5304,0.0741272,-215.9608,0,0,1
-255.6139,4.462462,7.830767,1,0.92,0.016
-402.8265,0.3420069,-136.4933,0,0,1
-310.4321,4.052485,31.58465,0,0,0
-331.0017,4.085929,53.40552,0,0,0
-519.889,0.0741272,-43.88782,0,0,1
-556.1606,0.0741272,-9.473206,0,0,1
-459.0936,2.79958,86.28019,1,0,0
-260.6466,5.238156,-267.2456,0,0,1
-307.2291,4.94928,-262.8695,0,0,1
-355.278,4.718296,-249.1215,0,0,1
-255.3206,7.273695,8.296847,1,0.92,0.016
-478.3641,3.981305,-233.9305,0,0,1
-313.0816,7.024813,28.79218,0,0,0
-328.1724,7.117136,55.84729,0,0,0
-637.5803,3.661908,-126.8947,0,0,1
-658.1589,3.948221,-67.90179,0,0,1
-457.6978,6.451159,86.92229,1,0,0
-262.1996,10.07413,-272.3477,0,0,1
-308.9885,10.07413,-267.2921,0,0,1
-359.3055,10.07413,-257.096,0,0,1
-255.3206,10.07413,8.296844,1,0.92,0.016
-482.0437,10.07413,-238.6767,0,0,1
-310.2172,10.07413,31.81119,0,0,0
-329.4863,10.07413,54.71338,0,0,0
-641.9697,10.07413,-129.9905,0,0,1
-664.5465,10.07413,-71.56085,0,0,1
-456.2051,10.07413,87.60898,1,0,0
-263.8215,15.00762,-277.6759,0,0,1
-174.807,11.87276,70.00059,0,1,0
-255.8367,12.88406,7.476808,1,0.92,0.016
-484.8069,16.27158,-242.2412,0,0,1
-313.1082,13.12383,28.76406,0,0,0
-329.25,13.04521,54.91731,0,0,0
-645.9032,16.58622,-132.7648,0,0,1
-668.7545,16.31699,-73.97131,0,0,1
-452.0116,13.63901,89.53812,1,0,0
-174.9608,13.67913,69.6138,0,1,0
-256.7655,15.7282,6.000937,1,0.92,0.016
-487.5216,22.55721,-245.7429,0,0,1
-564.6068,23.48144,-236.3061,0,0,1
-328.6923,16.00163,55.3986,0,0,0
-649.4965,23.18454,-135.2991,0,0,1
-673.5518,22.66577,-76.7193,0,0,1
-452.5522,17.21497,89.28936,1,0,0
-257.0274,18.56969,5.584857,1,0.92,0.016
-490.7699,28.95702,-249.9328,0,0,1
-567.9025,30.32874,-239.7796,0,0,1
-333.7741,19.16578,51.01299,0,0,0
-653.02,29.86658,-137.7842,0,0,1
-451.8682,20.76439,89.60407,1,0,0
-256.1173,21.33452,7.030923,1,0.92,0.016
-494.4053,35.48747,-254.6221,0,0,1
-336.4861,22.33889,48.67247,0,0,0
-657.6362,36.68563,-141.04,0,0,1
-450.2584,24.262,90.34462,1,0,0
-186.7647,0.0741272,42.59483,0,0,1
-200.0145,0.0741272,57.57626,0,0,1
-213.2643,0.0741272,72.55769,0,0,1
-226.5142,0.0741272,87.53906,0,0,1
-239.764,0.0741272,102.5205,0,0,1
-253.0138,0.0741272,117.5019,0,0,1
-266.2636,0.0741272,132.4833,0,0,1
-279.5134,0.0741272,147.4647,0,0,1
-292.7632,0.0741272,162.4462,0,0,1
-291.4005,0.7946196,182.6563,0,0,1
-207.6559,0.0741272,-9.256531,0,0,1
-224.2183,0.07412624,9.470299,0,0,1
-240.7805,0.0741272,28.19707,0,0,1
-257.3428,0.0741272,46.92386,0,0,1
-273.905,0.07412815,65.65064,0,0,1
-290.4673,0.07412624,84.37738,0,0,1
-307.0295,0.07412815,103.1042,0,0,1
-309.5417,0.7116318,130.0018,0,0,1
-313.0499,1.217984,153.0763,0,0,1
-355.9951,0.1025743,159.5425,0,0,1
-242.4748,0.07412744,-95.67529,0,0,1
-264.5578,0.0741272,-70.70624,0,0,1
-254.7059,1.815008,5.747164,1,0.92,0.016
-308.7238,0.0741272,-20.76819,0,0,1
-330.8068,0.0741272,4.200846,0,0,1
-322.9683,1.272475,55.63298,0,0,0
-374.9729,0.0741272,54.13887,0,0,1
-375.3737,0.8119764,91.71717,0,0,1
-419.1389,0.07412815,104.077,0,0,1
-379.2197,1.908392,151.2321,0,0,1
-301.265,0.5933585,-241.5901,0,0,1
-343.6849,0.1382456,-227.9749,0,0,1
-253.8194,4.600265,7.176342,1,0.92,0.016
-398.9709,0.4800813,-139.6644,0,0,1
-444.6104,0.0741272,-118.6987,0,0,1
-323.4476,4.193562,55.20908,0,0,0
-510.8594,0.0741272,-43.79169,0,0,1
-543.984,0.0741272,-6.338135,0,0,1
-459.3695,2.558561,85.49547,1,0,0
-463.1245,2.975489,121.2085,1,0,0
-309.6227,5.133713,-262.3337,0,0,1
-354.666,4.879339,-249.8002,0,0,1
-253.5733,7.341668,7.573112,1,0.92,0.016
-470.5544,4.116113,-233.9722,0,0,1
-549.3585,3.540081,-231.819,0,0,1
-322.6744,7.144178,55.89295,0,0,0
-636.4291,3.533999,-134.2871,0,0,1
-656.5264,3.797513,-71.78711,0,0,1
-456.6556,6.344991,86.74896,1,0,0
-460.5147,6.550545,122.1423,1,0,0
-311.4267,10.07413,-266.8112,0,0,1
-358.4481,10.07413,-257.3171,0,0,1
-253.5733,10.07413,7.57311,1,0.92,0.016
-474.0811,10.07413,-238.6184,0,0,1
-552.3579,10.07413,-235.058,0,0,1
-323.4725,10.07413,55.18703,0,0,0
-642.4663,10.07413,-138.6379,0,0,1
-661.7704,10.07413,-74.83691,0,0,1
-455.021,10.07413,87.50394,1,0,0
-458.972,10.07413,122.6944,1,0,0
-313.1158,15.09814,-271.0034,0,0,1
-254.0613,12.81545,6.786321,1,0.92,0.016
-476.973,16.13624,-242.4282,0,0,1
-554.8109,16.68803,-237.7073,0,0,1
-322.3915,13.00031,56.14307,0,0,0
-647.4148,16.749,-142.2043,0,0,1
-665.4307,16.45175,-76.96545,0,0,1
-452.1709,13.75596,88.8203,1,0,0
-460.831,13.60083,122.0292,1,0,0
-315.8478,20.25293,-277.7839,0,0,1
-254.9584,15.58938,5.340173,1,0.92,0.016
-479.7778,22.28934,-246.1236,0,0,1
-557.3167,23.37532,-240.4133,0,0,1
-329.8605,16.12592,49.53741,0,0,0
-651.3602,23.52065,-145.0475,0,0,1
-669.1136,22.91292,-79.10736,0,0,1
-451.3831,17.42119,89.18415,1,0,0
-459.7117,17.10547,122.4297,1,0,0
-255.4057,18.37139,4.618955,1,0.92,0.016
-483.3065,28.56863,-250.7724,0,0,1
-560.444,30.16331,-243.7906,0,0,1
-333.5966,19.30142,46.23309,0,0,0
-656.34,30.42714,-148.6363,0,0,1
-675.1276,29.53698,-82.60474,0,0,1
-450.5948,21.06978,89.54824,1,0,0
-454.2688,20.46012,124.3773,1,0,0
-254.4478,21.06752,6.163331,1,0.92,0.016
-490.366,35.19146,-260.073,0,0,1
-337.2792,22.57386,42.97619,0,0,0
-450.33,24.72379,89.67054,1,0,0
-455.3178,23.96348,124.0019,1,0,0
-203.4933,0.0741272,50.14703,0,0,1
-215.4698,0.0741272,66.16467,0,0,1
-227.4463,0.0741272,82.18227,0,0,1
-239.4228,0.0741272,98.19989,0,0,1
-251.3993,0.0741272,114.2175,0,0,1
-263.3757,0.0741272,130.2351,0,0,1
-275.3522,0.0741272,146.2527,0,0,1
-287.3288,0.0741272,162.2703,0,0,1
-290.3414,0.5312166,181.5658,0,0,1
-289.4802,1.121869,200.1409,0,0,1
-228.5668,0.0741272,0.1837769,0,0,1
-243.5374,0.07412624,20.20583,0,0,1
-258.5079,0.0741272,40.22781,0,0,1
-273.4786,0.0741272,60.24987,0,0,1
-288.4492,0.07412815,80.2719,0,0,1
-303.4197,0.07412624,100.2939,0,0,1
-313.2095,0.3148842,123.4381,0,0,1
-309.6657,1.103635,151.6277,0,0,1
-347.9608,0.08925724,160.4955,0,0,1
-360.7064,0.1739273,181.0767,0,0,1
-270.3558,0.0741272,-83.08826,0,0,1
-253.6241,2.035066,3.68946,1,0.92,0.016
-310.2774,0.0741272,-29.69617,0,0,1
-330.2382,0.07412726,-3.000122,0,0,1
-316.3404,1.444928,54.71755,0,0,0
-370.1599,0.0741272,50.39187,0,0,1
-372.2172,0.6981096,87.87729,0,0,1
-410.0814,0.07412624,103.7839,0,0,1
-380.0927,1.602372,148.7455,0,0,1
-375.1938,2.231238,177.1991,0,0,1
-345.7095,0.4021358,-233.244,0,0,1
-252.58,4.751954,5.399111,1,0.92,0.016
-394.6874,0.6899619,-143.7073,0,0,1
-443.7575,0.0741272,-129.5003,0,0,1
-317.5447,4.288851,53.6142,0,0,0
-503.64,0.0741272,-49.41223,0,0,1
-533.5812,0.0741272,-9.368164,0,0,1
-464.3475,2.228593,77.92829,1,0,0
-461.8056,2.759578,118.8646,1,0,0
-495.1916,2.538799,145.0809,1,0,0
-354.3104,5.066617,-250.3827,0,0,1
-252.3412,7.417295,5.790249,1,0.92,0.016
-462.4518,4.29124,-235.2355,0,0,1
-538.245,3.686882,-234.7923,0,0,1
-317.1883,7.186274,53.94077,0,0,0
-640.3246,3.367448,-151.6123,0,0,1
-651.6089,3.702929,-80.49725,0,0,1
-459.1143,6.208204,80.42168,1,0,0
-459.13,6.444144,119.843,1,0,0
-488.8841,6.36709,146.7691,1,0,0
-357.8519,10.07413,-257.4398,0,0,1
-252.3412,10.07413,5.790243,1,0.92,0.016
-465.3932,10.07413,-239.2083,0,0,1
-541.5157,10.07413,-238.437,0,0,1
-316.6136,10.07413,54.46727,0,0,0
-364.7084,10.07415,54.46786,0,0,0
-655.1404,10.07413,-82.62555,0,0,1
-457.077,10.07413,81.39238,1,0,0
-457.6495,10.07413,120.3844,1,0,0
-484.4882,10.07413,147.9457,1,0,0
-252.9014,12.74094,4.872927,1,0.92,0.016
-467.7837,15.94284,-242.4371,0,0,1
-544.069,16.54688,-241.2822,0,0,1
-317.1729,12.96178,53.95486,0,0,0
-365.2821,13.34656,54.03902,0,0,0
-658.0024,16.5196,-84.35028,0,0,1
-454.5077,13.89002,82.61655,1,0,0
-454.5851,13.65777,121.505,1,0,0
-482.3495,13.71836,148.5181,1,0,0
-253.9556,15.44531,3.146732,1,0.92,0.016
-470.1835,21.88882,-245.6786,0,0,1
-546.5222,23.09167,-244.0161,0,0,1
-325.5354,16.07511,46.29295,0,0,0
-654.1422,23.83255,-161.9439,0,0,1
-660.6687,23.02703,-85.95709,0,0,1
-453.4761,17.6835,83.10806,1,0,0
-454.4946,17.23958,121.5381,1,0,0
-481.1116,17.3388,148.8495,1,0,0
-254.5386,18.16206,2.192207,1,0.92,0.016
-473.1296,27.93843,-249.6577,0,0,1
-549.2912,29.7224,-247.1016,0,0,1
-333.6527,19.40423,38.85585,0,0,0
-663.3454,29.59678,-87.57025,0,0,1
-452.9961,21.47254,83.33679,1,0,0
-454.1373,20.81131,121.6687,1,0,0
-480.4125,20.95098,149.0366,1,0,0
-253.5082,20.78461,3.879353,1,0.92,0.016
-666.4263,36.24749,-89.42694,0,0,1
-452.9864,25.27159,83.3414,1,0,0
-453.945,24.38256,121.739,1,0,0
-480.2343,24.56974,149.0843,1,0,0
-218.5089,0.0741272,58.41762,0,0,1
-229.2231,0.0741272,75.30564,0,0,1
-239.9373,0.0741272,92.19366,0,0,1
-250.6516,0.0741272,109.0817,0,0,1
-261.3657,0.0741272,125.9697,0,0,1
-272.08,0.0741272,142.8577,0,0,1
-282.7942,0.0741272,159.7458,0,0,1
-289.2928,0.2956409,178.259,0,0,1
-288.7994,0.841362,197.8551,0,0,1
-292.1654,1.149587,214.6676,0,0,1
-247.3361,0.0741272,10.52199,0,0,1
-260.7289,0.07412624,31.63202,0,0,1
-274.1218,0.0741272,52.74207,0,0,1
-287.5145,0.0741272,73.85212,0,0,1
-300.9072,0.0741272,94.96214,0,0,1
-314.3,0.07412624,116.0722,0,0,1
-307.2123,0.9864264,147.4746,0,0,1
-339.5241,0.1397676,158.8942,0,0,1
-354.4784,0.0741272,179.4023,0,0,1
-364.7122,0.1934824,201.103,0,0,1
-252.6367,2.298321,1.715449,1,0.92,0.016
-313.2386,0.07412732,-41.15735,0,0,1
-331.0958,0.0741272,-13.01062,0,0,1
-310.3423,1.645238,52.03579,0,0,0
-354.2872,0.5491681,53.10273,0,0,0
-370.0348,0.593977,80.71257,0,0,1
-402.5239,0.07412624,99.57629,0,0,1
-407.1317,0.4918432,132.8308,0,0,1
-372.9021,2.024228,174.2261,0,0,1
-388.0015,2.003695,196.7484,0,0,1
-251.6332,4.925067,3.382754,1,0.92,0.016
-392.1662,0.9022923,-150.567,0,0,1
-445.0438,0.07412696,-144.5159,0,0,1
-313.4785,4.369794,49.03866,0,0,0
-351.4973,3.794705,55.29055,0,0,0
-525.4005,0.0741272,-17.85565,0,0,1
-484.3736,1.584465,58.44305,1,0,0
-459.052,2.594655,112.8148,1,0,0
-485.6172,2.464698,142.5583,1,0,0
-632.5427,0.0741272,151.0247,0,0,1
-251.4619,7.50257,3.667408,1,0.92,0.016
-454.6559,4.496492,-237.1907,0,0,1
-524.0815,3.918077,-235.7319,0,0,1
-312.9495,7.229112,49.54414,0,0,0
-351.1942,6.938251,55.52818,0,0,0
-645.8708,3.647431,-94.28534,0,0,1
-468.2721,6.008612,66.53479,1,0,0
-456.5889,6.360284,113.7644,1,0,0
-481.8507,6.306888,143.6165,1,0,0
-670.0459,4.719883,144.0124,0,0,1
-251.4619,10.07413,3.667394,1,0.92,0.016
-457.3073,10.07413,-240.866,0,0,1
-527.5234,10.07413,-239.704,0,0,1
-310.4895,10.07413,51.8951,0,0,0
-350.0338,10.07412,56.43818,0,0,0
-649.5143,10.07413,-96.59674,0,0,1
-463.8719,10.07412,68.74609,1,0,0
-454.6473,10.07413,114.5129,1,0,0
-479.0091,10.07413,144.4149,1,0,0
-712.722,10.07413,136.0329,0,0,1
-251.9854,12.65477,2.797585,1,0.92,0.016
-459.3438,15.72616,-243.689,0,0,1
-530.0496,16.31747,-242.6193,0,0,1
-312.1956,12.9089,50.26468,0,0,0
-350.6435,13.20304,55.96009,0,0,0
-652.4736,16.57902,-98.47424,0,0,1
-466.6422,14.1215,67.35387,1,0,0
-454.0679,13.76149,114.7362,1,0,0
-476.8511,13.79163,145.0212,1,0,0
-723.4037,15.93237,134.0357,0,0,1
-252.999,15.27057,1.113435,1,0.92,0.016
-461.2965,21.44017,-246.3958,0,0,1
-532.3645,22.62853,-245.291,0,0,1
-318.0084,15.90135,44.7094,0,0,0
-352.8992,16.389,54.1912,0,0,0
-655.2034,23.14856,-100.2061,0,0,1
-465.0793,18.13406,68.13929,1,0,0
-453.1966,17.43053,115.0722,1,0,0
-475.611,17.48446,145.3696,1,0,0
-253.7457,17.90764,-0.1270695,1,0.92,0.016
-463.414,27.22401,-249.3313,0,0,1
-534.8589,29.01518,-248.1699,0,0,1
-333.3031,19.43732,30.09232,0,0,0
-356.836,19.69572,51.1042,0,0,0
-657.8263,29.77897,-101.8701,0,0,1
-455.6884,21.85028,72.85864,1,0,0
-452.7527,21.09475,115.2433,1,0,0
-474.9124,21.16876,145.5658,1,0,0
-252.7527,20.44992,1.522685,1,0.92,0.016
-466.8214,33.15693,-254.0545,0,0,1
-538.0366,35.51478,-251.8371,0,0,1
-660.713,36.48399,-103.7016,0,0,1
-458.4417,25.89831,71.47504,1,0,0
-452.6653,24.7646,115.277,1,0,0
-474.7866,24.86197,145.6012,1,0,0
-230.4083,0.0741272,66.10334,0,0,1
-240.0317,0.0741272,83.63589,0,0,1
-249.655,0.0741272,101.1685,0,0,1
-259.2784,0.0741272,118.701,0,0,1
-268.9019,0.0741272,136.2336,0,0,1
-278.5252,0.0741272,153.7661,0,0,1
-288.1486,0.0741272,171.2987,0,0,1
-287.4831,0.6029224,192.0658,0,0,1
-289.6752,0.9419336,210.1506,0,0,1
-294.9929,1.104243,226.5853,0,0,1
-262.2104,0.07412624,20.12916,0,0,1
-274.2397,0.07412624,42.04483,0,0,1
-286.2689,0.0741272,63.96055,0,0,1
-298.2982,0.0741272,85.87627,0,0,1
-310.3273,0.07412815,107.792,0,0,1
-304.9481,0.8684664,139.2629,0,0,1
-324.8278,0.4875622,155.6906,0,0,1
-346.4151,0.0741272,173.539,0,0,1
-358.4444,0.0741272,195.4547,0,0,1
-359.9019,0.4696646,218.6611,0,0,1
-315.2141,0.0741272,-56.49445,0,0,1
-331.253,0.0741272,-27.27356,0,0,1
-309.9713,1.603089,39.87361,0,0,0
-363.331,0.07412624,31.16833,0,0,1
-379.37,0.07412624,60.38927,0,0,1
-378.848,0.6408768,98.70029,0,0,1
-411.4479,0.0741272,118.8311,0,0,1
-372.4985,1.769798,165.3391,0,0,1
-377.4107,2.016826,191.4017,0,0,1
-459.5649,0.0741272,206.4939,0,0,1
-381.1421,1.33439,-151.8021,0,0,1
-424.3111,0.6871002,-140.4161,0,0,1
-312.9989,4.344106,36.79687,0,0,0
-337.3267,4.073898,53.04398,0,0,0
-517.4551,0.07412708,-34.41614,0,0,1
-541.5135,0.07412624,9.415284,0,0,1
-461.566,2.323528,97.50425,1,0,0
-472.303,2.486137,133.9629,1,0,0
-613.689,0.07412815,140.9095,0,0,1
-635.0497,0.1245947,185.0703,0,0,1
-441.0553,4.762292,-238.4144,0,0,1
-500.1924,4.271498,-232.6746,0,0,1
-310.8808,7.238167,38.94936,0,0,0
-336.2732,7.087502,53.93026,0,0,0
-640.4347,3.589781,-118.8506,0,0,1
-661.4357,3.706134,-56.40833,0,0,1
-461.566,6.19883,97.50426,1,0,0
-469.0034,6.31405,135.0002,1,0,0
-697.7136,4.251146,122.9536,0,0,1
-669.4849,4.777265,180.8663,0,0,1
-444.6791,10.07413,-243.6531,0,0,1
-504.0504,10.07413,-237.3653,0,0,1
-310.1886,10.07413,39.65275,0,0,0
-335.2282,10.07413,54.80938,0,0,0
-644.4882,10.07413,-121.6334,0,0,1
-668.3352,10.07413,-60.19537,0,0,1
-461.566,10.07413,97.50426,1,0,0
-466.6581,10.07413,135.7375,1,0,0
-710.4213,10.07413,120.238,0,0,1
-672.2443,10.07413,180.5294,0,0,1
-446.905,15.47793,-246.871,0,0,1
-506.9389,15.97537,-240.8772,0,0,1
-312.1005,12.92689,37.7099,0,0,0
-335.4874,13.05068,54.59138,0,0,0
-647.8384,16.64783,-123.9337,0,0,1
-673.3719,16.57828,-62.95996,0,0,1
-461.566,13.94943,97.50427,1,0,0
-466.9028,13.81262,135.6606,1,0,0
-723.6724,16.15136,117.4063,0,0,1
-674.5293,15.41817,180.2505,0,0,1
-448.9362,20.94561,-249.8073,0,0,1
-509.5519,21.95299,-244.0541,0,0,1
-318.0086,15.94101,31.70586,0,0,0
-337.9499,16.09033,52.51979,0,0,0
-650.8583,23.29444,-126.007,0,0,1
-680.293,23.24034,-66.75885,0,0,1
-461.566,17.82473,97.50424,1,0,0
-463.5754,17.4827,136.7066,1,0,0
-676.6134,20.80121,179.996,0,0,1
-451.0976,26.48329,-252.9318,0,0,1
-512.1765,28.00751,-247.2454,0,0,1
-578.847,29.5605,-233.3644,0,0,1
-340.005,19.17743,50.79092,0,0,0
-653.8632,30.0134,-128.0699,0,0,1
-461.566,21.70004,97.50427,1,0,0
-463.6149,21.18821,136.6942,1,0,0
-678.6549,26.22204,179.7468,0,0,1
-454.2881,32.15366,-257.5441,0,0,1
-515.2275,34.16368,-250.9548,0,0,1
-341.7603,22.30183,49.31439,0,0,0
-657.312,36.82633,-130.4379,0,0,1
-461.566,25.57534,97.50429,1,0,0
-463.4906,24.88779,136.7333,1,0,0
-680.7736,31.68394,179.4882,0,0,1
-243.4702,0.0741272,75.86143,0,0,1
-251.7903,0.0741272,94.04859,0,0,1
-260.1106,0.0741272,112.2358,0,0,1
-268.4309,0.0741272,130.4229,0,0,1
-276.7511,0.07412815,148.6101,0,0,1
-285.0714,0.0741272,166.7973,0,0,1
-287.4556,0.3862362,187.0137,0,0,1
-287.617,0.7841568,206.4966,0,0,1
-291.8019,0.9555321,223.8833,0,0,1
-297.9731,1.021331,240.5362,0,0,1
-278.5377,0.0741272,32.32679,0,0,1
-288.938,0.0741272,55.06076,0,0,1
-299.3384,0.0741272,77.79475,0,0,1
-309.7387,0.0741272,100.5287,0,0,1
-308.9174,0.5913992,129.8184,0,0,1
-311.1324,0.927784,154.875,0,0,1
-309.7072,1.387854,179.4072,0,0,1
-351.34,0.0741272,191.4646,0,0,1
-358.8895,0.1843967,214.5933,0,0,1
-344.4388,1.104163,238.2785,0,0,1
-336.9837,0.0741272,-40.2309,0,0,1
-309.9761,1.724619,32.98048,0,0,0
-324.4313,1.614617,55.76369,0,0,0
-378.585,0.0741272,50.70494,0,0,1
-373.7706,0.7199812,91.93075,0,0,1
-406.3193,0.07412624,111.3289,0,0,1
-372.7534,1.570497,157.8553,0,0,1
-374.0043,1.889102,186.1182,0,0,1
-447.9206,0.0741272,202.2647,0,0,1
-351.1248,3.160202,237.9537,0,0,1
-452.8385,0.103704,-184.0587,0,0,1
-310.3821,4.497015,32.55437,0,0,0
-325.063,4.418345,55.20908,0,0,0
-516.2778,0.0741272,-48.94263,0,0,1
-537.0784,0.0741272,-3.47467,0,0,1
-458.9467,2.25,87.25276,1,0,0
-466.5812,2.431714,125.781,1,0,0
-599.4805,0.0741272,132.9292,0,0,1
-613.146,0.2121153,179.3852,0,0,1
-343.241,5.611416,238.3367,1,0.92,0.016
-492.8596,4.518288,-233.7429,0,0,1
-313.0038,7.25021,29.80279,0,0,0
-324.2841,7.25616,55.89295,0,0,0
-636.5316,3.618544,-135.9698,0,0,1
-655.932,3.704463,-72.90973,0,0,1
-459.276,6.158442,87.10212,1,0,0
-463.7033,6.283186,126.7648,1,0,0
