-15.88509,12.54084,7.721394,1,0.92,0.016
36.71935,15.58015,-293.7942,0,0,1
-19.0589,15.52832,-291.6434,0,0,1
-73.59766,15.51404,-293.185,0,0,1
-117.5257,13.22717,-66.55309,1,0,0
-148.0447,13.16077,-61.56606,1,0,0
-148.8212,11.93517,61.13269,0,1,0
-281.3909,15.23922,-276.987,0,0,1
96.31076,17.28089,-100.0001,1,0,0
148.5038,21.16669,-291.7344,0,0,1
-15.19059,15.04679,5.794348,1,0.92,0.016
-18.63324,21.03769,-294.3829,0,0,1
-73.16003,21.1148,-301.2157,0,0,1
-117.5224,16.37876,-66.47993,1,0,0
-148.0447,16.24741,-61.56606,1,0,0
-149.0942,13.81849,60.00244,0,1,0
-283.2619,20.51279,-282.5203,0,0,1
95.96119,20.86533,-99.38695,1,0,0
150.0541,26.81546,-295.0711,0,0,1
-18.19067,26.60554,-297.2322,0,0,1
-117.5191,19.52889,-66.40681,1,0,0
-148.0447,19.33405,-61.56606,1,0,0
-149.5185,15.7426,58.24614,0,1,0
95.88468,24.45688,-99.25269,1,0,0
152.3645,32.59954,-300.0438,0,0,1
-15.18467,20.02011,5.77794,1,0.92,0.016
-17.68292,32.24767,-300.5008,0,0,1
-117.192,22.39254,-59.17995,1,0,0
-133.983,18.54931,36.12836,0,1,0
-150.3023,17.75999,55.001,0,1,0
-5.411804,0.0741272,48.90898,0,0,1
-25.41058,0.0741272,49.1296,0,0,1
-45.40936,0.07412624,49.35023,0,0,1
-65.40814,0.0741272,49.57084,0,0,1
-85.40692,0.07412815,49.79148,0,0,1
-105.4058,0.0741272,50.0121,0,0,1
-125.4045,0.0741272,50.23274,0,0,1
-142.9088,0.6651745,62.24789,0,1,0
-165.4021,0.07412624,50.67398,0,0,1
-185.4009,0.0741272,50.89457,0,0,1
19.03509,0.07412726,-1.363831,0,0,1
-5.963379,0.0741272,-1.087952,0,0,1
-30.96185,0.0741272,-0.8122559,0,0,1
-55.96033,0.0741272,-0.536377,0,0,1
-80.95886,0.0741272,-0.2606812,0,0,1
-105.9573,0.0741272,0.01507568,0,0,1
-130.9558,0.0741272,0.2909546,0,0,1
-142.6657,2.593046,63.39713,0,1,0
-180.9528,0.0741272,0.842452,0,0,1
-205.9513,0.0741272,1.118213,0,0,1
59.77998,0.0741272,-85.15167,0,0,1
26.44866,0.0741272,-84.78394,0,0,1
-31.12653,2.591223,-0.2405109,1,0.92,0.016
-40.21393,0.0741272,-84.04852,0,0,1
-73.54523,0.0741272,-83.68091,0,0,1
-106.8765,0.07412696,-83.31317,0,0,1
-136.128,1.176571,-46.24009,1,0,0
-142.6239,4.469263,63.59475,0,1,0
-206.8705,0.07412744,-82.21008,0,0,1
-240.2018,0.0741272,-81.84235,0,0,1
141.2698,0.07412672,-252.7274,0,0,1
91.2728,0.0741272,-252.1758,0,0,1
-31.79865,5.132045,2.093085,1,0.92,0.016
-8.72113,0.0741272,-251.0728,0,0,1
-58.71808,0.0741272,-250.5215,0,0,1
-106.8972,3.370177,-85.17721,1,0,0
-137.4398,3.906105,-58.0421,1,0,0
-142.7989,6.320961,62.76755,0,1,0
-258.2313,0.1046567,-246.7938,0,0,1
-299.0143,0.5455899,-224.2958,0,0,1
155.8608,4.775704,-282.7327,0,0,1
101.7216,4.805481,-279.1575,0,0,1
-31.86251,7.605296,2.31487,1,0.92,0.016
-2.333191,4.736068,-284.9513,0,0,1
-55.78912,4.744891,-283.4792,0,0,1
-106.8469,6.767703,-80.62244,1,0,0
-137.8315,6.954837,-61.56606,1,0,0
-143.0858,8.183949,61.41094,0,1,0
-264.4138,4.890605,-266.6053,0,0,1
-314.1904,4.940615,-261.055,0,0,1
157.9707,10.07413,-287.0714,0,0,1
103.7602,10.07413,-284.4216,0,0,1
-31.86252,10.07413,2.314865,1,0.92,0.016
-1.380188,10.07413,-290.0057,0,0,1
-55.31494,10.07413,-288.8146,0,0,1
-106.8082,10.07413,-77.11257,1,0,0
-137.0153,10.07413,-54.22293,1,0,0
-143.2262,10.07412,60.74712,0,1,0
-266.2337,10.07413,-272.4371,0,0,1
-316.1825,10.07413,-265.8802,0,0,1
159.8946,15.45505,-291.0277,0,0,1
105.6631,15.44411,-289.3353,0,0,1
-31.52691,12.55457,1.149619,1,0.92,0.016
-0.5756226,15.5052,-294.2728,0,0,1
-54.90613,15.50261,-293.4147,0,0,1
-106.7788,13.31878,-74.44533,1,0,0
-136.876,13.10736,-52.96976,1,0,0
-143.3647,11.97751,60.09263,0,1,0
-268.1368,15.37735,-278.5356,0,0,1
-318.1865,15.30486,-270.7341,0,0,1
162.2798,20.93354,-295.9327,0,0,1
0.4020996,21.03976,-299.4583,0,0,1
-54.38226,21.04889,-299.3101,0,0,1
-106.7599,16.52917,-72.73229,1,0,0
-136.7618,16.12001,-51.9421,1,0,0
-143.5923,13.90245,59.01634,0,1,0
-106.7463,19.71986,-71.50481,1,0,0
-136.6831,19.12169,-51.23459,1,0,0
-144.0602,15.88317,56.80381,0,1,0
-106.7413,22.91668,-71.0443,1,0,0
-126.7791,18.56933,37.8671,0,1,0
-145.5164,18.09557,49.9185,0,1,0
-20.19556,0.07412815,42.36958,0,0,1
-40.12616,0.0741272,44.03451,0,0,1
-60.05676,0.0741272,45.6994,0,0,1
-79.98737,0.0741272,47.3643,0,0,1
-99.91797,0.07412815,49.02922,0,0,1
-119.8485,0.0741272,50.69407,0,0,1
-138.6847,0.3733139,58.27237,0,1,0
-159.7097,0.0741272,54.02389,0,0,1
-179.6403,0.0741272,55.6888,0,0,1
-199.5709,0.0741272,57.35365,0,0,1
0.5554199,0.0741272,-9.538025,0,0,1
-27.93999,0.5284728,4.240645,1,0.92,0.016
-49.27106,0.0741272,-5.375793,0,0,1
-74.18433,0.0741272,-3.294617,0,0,1
-99.09753,0.0741272,-1.213501,0,0,1
-124.0107,0.0741272,0.867635,0,0,1
-139.4816,2.139185,53.96649,0,1,0
-173.8372,0.07412624,5.029842,0,0,1
-198.7505,0.0741272,7.110983,0,0,1
-223.6638,0.0741272,9.192094,0,0,1
35.14038,0.0741272,-96.05066,0,0,1
-28.56594,2.974432,6.284644,1,0.92,0.016
-31.29486,0.07412696,-90.5011,0,0,1
-64.51251,0.0741272,-87.7262,0,0,1
-97.73022,0.0741272,-84.95135,0,0,1
-129.3801,0.6391397,-63.40815,1,0,0
-139.1027,4.185074,56.01388,0,1,0
-197.3832,0.07412696,-76.62689,0,0,1
-230.6008,0.0741272,-73.85199,0,0,1
-263.8185,0.07412696,-71.07721,0,0,1
103.5216,0.1121378,-267.103,0,0,1
-28.9854,5.367598,7.654384,1,0.92,0.016
4.657389,0.0741272,-260.7515,0,0,1
-45.16901,0.0741272,-256.5893,0,0,1
-94.99554,0.0741272,-252.4271,0,0,1
-129.2668,3.811362,-62.05149,1,0,0
-139.1141,6.146843,55.95205,0,1,0
-244.4749,0.0741272,-239.9402,0,0,1
-289.7702,0.3112411,-224.2595,0,0,1
-342.8044,0.1290622,-228.9701,0,0,1
108.4224,4.975047,-279.3621,0,0,1
-28.98644,7.720896,7.657767,1,0.92,0.016
9.064531,4.869823,-281.6213,0,0,1
-42.25391,4.822957,-282.0372,0,0,1
-94.43164,4.730447,-286.9619,0,0,1
-129.0539,6.968319,-59.50296,1,0,0
-139.7386,8.076332,52.57788,0,1,0
-252.5986,4.786614,-268.1132,0,0,1
-305.1181,4.791119,-263.2737,0,0,1
-353.5215,4.879182,-250.3936,0,0,1
110.4968,10.07413,-284.5513,0,0,1
-28.98644,10.07413,7.657767,1,0.92,0.016
10.35883,10.07413,-287.7504,0,0,1
-41.66663,10.07413,-287.164,0,0,1
-94.34216,10.07413,-292.4401,0,0,1
-120.826,10.07415,38.99252,0,1,0
-160.8645,10.07413,-61.56606,1,0,0
-254.0076,10.07413,-272.9992,0,0,1
-174.1057,10.07412,69.75761,0,1,0
-357.1206,10.07413,-257.5882,0,0,1
112.4585,15.27046,-289.4582,0,0,1
-28.78554,12.43373,7.001767,1,0.92,0.016
11.5044,15.39154,-293.1752,0,0,1
-41.19751,15.41632,-291.2589,0,0,1
-97.50275,13.5461,-98.88258,1,0,0
-120.6382,12.16896,41.24134,0,1,0
-160.1579,13.18834,-57.74811,1,0,0
-199.5538,13.48427,-84.15439,1,0,0
-308.4839,15.4452,-271.8298,0,0,1
115.7537,20.62559,-297.701,0,0,1
-28.28914,14.82481,5.380754,1,0.92,0.016
-40.7312,20.83886,-295.33,0,0,1
-97.58488,16.91796,-93.8524,1,0,0
-120.8859,14.32336,38.27605,0,1,0
-160.2246,16.30986,-58.10883,1,0,0
-198.6566,16.83093,-81.04312,1,0,0
-174.3028,13.79482,69.25671,0,1,0
-27.61067,17.2647,3.165255,1,0.92,0.016
-40.05994,26.39475,-301.1903,0,0,1
-97.63309,20.25173,-90.90028,1,0,0
-128.5994,19.22778,-54.06244,1,0,0
-160.3245,19.44411,-58.64862,1,0,0
-198.061,20.14609,-78.97742,1,0,0
-174.4937,15.67016,68.77126,0,1,0
-28.10347,19.59905,4.774461,1,0.92,0.016
-97.65353,23.59445,-89.64862,1,0,0
-128.5797,22.26954,-53.82712,1,0,0
-159.6021,22.40943,-54.74522,1,0,0
-197.834,23.47129,-78.19044,1,0,0
-34.17523,0.0741272,37.31319,0,0,1
-53.95105,0.0741272,40.29871,0,0,1
-73.72699,0.0741272,43.28428,0,0,1
-93.50293,0.0741272,46.26978,0,0,1
-113.2789,0.0741272,49.25533,0,0,1
-133.0548,0.0741272,52.24082,0,0,1
-152.8307,0.07412815,55.22637,0,0,1
-172.6066,0.0741272,58.21186,0,0,1
-192.3825,0.0741272,61.19741,0,0,1
-212.1584,0.0741272,64.18294,0,0,1
-24.2557,0.9244415,6.747847,1,0.92,0.016
-41.63904,0.0741272,-12.12659,0,0,1
-66.35889,0.07412714,-8.394775,0,0,1
-91.0788,0.07412726,-4.662781,0,0,1
-115.7987,0.0741272,-0.9309692,0,0,1
-140.5186,0.0741272,2.801046,0,0,1
-151.3729,2.309103,60.94744,0,1,0
-189.9584,0.0741272,10.26486,0,0,1
-214.6783,0.0741272,13.99674,0,0,1
-239.3982,0.0741272,17.72867,0,0,1
-24.68463,3.249147,8.069512,1,0.92,0.016
-21.11884,0.0741272,-99.50208,0,0,1
-54.07867,0.07412744,-94.52618,0,0,1
-87.03857,0.0741272,-89.55042,0,0,1
-119.2643,0.5111262,-69.95362,1,0,0
-147.5905,1.152889,-44.04276,1,0,0
-150.8588,4.312529,62.96487,0,1,0
-218.878,0.0741272,-69.64691,0,0,1
-251.8379,0.07412696,-64.67096,0,0,1
-284.7978,0.07412696,-59.69519,0,0,1
-25.07659,5.546855,9.277278,1,0.92,0.016
18.8893,0.1579616,-269.8581,0,0,1
-29.51825,0.0741272,-266.7894,0,0,1
-78.95801,0.0741272,-259.3256,0,0,1
-119.1986,3.724884,-68.64427,1,0,0
-150.236,3.7722,-61.56606,1,0,0
-150.8991,6.229797,62.80668,0,1,0
-276.7172,0.07412767,-229.4702,0,0,1
-325.8132,0.08955097,-221.2785,0,0,1
-250.1434,4.679659,-0.5959927,1,0.92,0.016
-25.07659,7.810492,9.277279,1,0.92,0.016
21.54099,5.008359,-281.149,0,0,1
-27.1181,4.911252,-283.6237,0,0,1
-77.88,4.851773,-281.9756,0,0,1
-119.0617,6.926665,-65.91811,1,0,0
-150.236,6.923163,-61.56606,1,0,0
-151.4649,8.129135,60.58612,0,1,0
-290.1442,4.687221,-266.5723,0,0,1
-341.4611,4.730921,-254.4056,0,0,1
-249.8811,7.381708,-0.1487631,1,0.92,0.016
-25.07658,10.07413,9.277282,1,0.92,0.016
22.76586,10.07413,-286.3646,0,0,1
-26.50195,10.07413,-287.9453,0,0,1
-77.60925,10.07413,-287.6642,0,0,1
-118.953,10.07413,-63.75347,1,0,0
-150.236,10.07413,-61.56606,1,0,0
-151.5347,10.07412,60.31226,0,1,0
-291.6614,10.07413,-270.7648,0,0,1
-344.3422,10.07413,-260.505,0,0,1
-249.8812,10.07413,-0.148734,1,0.92,0.016
-24.88202,12.3434,8.677752,1,0.92,0.016
23.92879,15.23687,-291.3164,0,0,1
-26.04462,15.30985,-291.1528,0,0,1
-77.3642,15.40288,-292.8138,0,0,1
-119.0446,13.21819,-65.5766,1,0,0
-150.236,13.22509,-61.56606,1,0,0
-151.8246,12.03357,59.17474,0,1,0
-292.9997,15.54332,-274.4628,0,0,1
-348.5815,15.57701,-269.4796,0,0,1
-250.5446,12.77873,-1.280182,1,0.92,0.016
-24.45266,14.63756,7.354774,1,0.92,0.016
-25.638,20.60076,-294.0052,0,0,1
-77.02167,20.8729,-300.0092,0,0,1
-119.0409,16.3608,-65.50387,1,0,0
-150.236,16.37605,-61.56606,1,0,0
-152.267,14.0287,57.43855,0,1,0
-294.4809,21.09787,-278.5554,0,0,1
-401.1268,21.01136,-258.0812,0,0,1
-24.01859,16.957,6.017203,1,0.92,0.016
-25.23059,25.94702,-296.8628,0,0,1
-119.0373,19.50196,-65.43118,1,0,0
-150.236,19.52702,-61.56606,1,0,0
-153.2648,16.12661,53.5229,0,1,0
-24.2226,19.22765,6.645875,1,0.92,0.016
-24.76978,31.36306,-300.0948,0,0,1
-118.6761,22.35793,-58.23845,1,0,0
-135.4514,18.71631,36.3661,0,1,0
-153.2877,18.14777,53.4329,0,1,0
-253.2417,21.09055,-5.879839,1,0.92,0.016
-49.74243,0.0741272,32.87704,0,0,1
-69.25055,0.0741272,37.28539,0,0,1
-88.75873,0.0741272,41.69376,0,0,1
-108.2668,0.0741272,46.10208,0,0,1
-127.775,0.07412815,50.51047,0,0,1
-145.4861,0.4817467,62.87084,0,1,0
-166.7911,0.07412815,59.32717,0,0,1
-186.2993,0.07412815,63.7355,0,0,1
-205.8074,0.0741272,68.14386,0,0,1
-225.3156,0.0741272,72.5522,0,0,1
-36.37817,0.0741272,-21.40375,0,0,1
-60.76337,0.0741272,-15.89319,0,0,1
-85.1485,0.07412726,-10.38287,0,0,1
-109.5336,0.0741272,-4.872437,0,0,1
-133.9188,0.0741272,0.6380826,0,0,1
-145.2826,2.437145,63.77123,0,1,0
-182.6891,0.0741272,11.65897,0,0,1
-207.0742,0.0741272,17.16936,0,0,1
-231.4594,0.0741272,22.67979,0,0,1
-255.8445,0.0741272,28.19025,0,0,1
-14.10443,0.0741272,-111.8715,0,0,1
-46.61792,0.0741272,-104.5243,0,0,1
-79.13147,0.0741272,-97.17712,0,0,1
-111.396,0.3689778,-79.80996,1,0,0
-139.4231,1.230273,-44.04276,1,0,0
-145.2357,4.352766,63.97864,0,1,0
-209.1856,0.0741272,-67.78802,0,0,1
-241.6992,0.0741272,-60.44086,0,0,1
-274.2127,0.0741272,-53.09357,0,0,1
-306.7261,0.0741272,-45.7464,0,0,1
25.31642,0.4577394,-271.9846,0,0,1
-19.32715,0.1919522,-275.5206,0,0,1
-67.09747,0.0741272,-270.7656,0,0,1
-111.3489,3.641228,-77.91361,1,0,0
-141.5818,3.826861,-61.56606,1,0,0
-145.3523,6.249323,63.46302,0,1,0
-262.1786,0.0741272,-226.6821,0,0,1
-298.5606,0.6704383,-187.8932,0,0,1
-359.7192,0.0741272,-204.6404,0,0,1
-379.0377,1.038844,-150.8228,0,0,1
27.67507,5.177689,-281.5646,0,0,1
-17.82532,5.044565,-284.9306,0,0,1
-66.17755,4.946728,-284.0347,0,0,1
-111.2435,6.899264,-73.6741,1,0,0
-141.5818,6.950495,-61.56606,1,0,0
-145.6268,8.149265,62.24826,0,1,0
-275.6174,4.651469,-266.9769,0,0,1
-329.2663,4.633275,-256.7189,0,0,1
-377.7743,4.722202,-236.6403,0,0,1
-439.006,4.574332,-237.9633,0,0,1
28.92625,10.07413,-286.6464,0,0,1
-17.22119,10.07413,-288.7156,0,0,1
-65.81464,10.07413,-289.27,0,0,1
-111.1612,10.07413,-70.3624,1,0,0
-141.5818,10.07413,-61.56606,1,0,0
-145.7239,10.07412,61.81832,0,1,0
-277.5984,10.07413,-272.9164,0,0,1
-332.0105,10.07413,-262.8698,0,0,1
-385.4556,10.07413,-250.254,0,0,1
-443.0316,10.07413,-243.8127,0,0,1
30.18433,15.06445,-291.7563,0,0,1
-16.77234,15.16572,-291.528,0,0,1
-65.48907,15.29688,-293.9657,0,0,1
-111.0985,13.19177,-67.84011,1,0,0
-141.5818,13.19776,-61.56606,1,0,0
-145.8633,12.0097,61.20163,0,1,0
-279.2972,15.61252,-278.0103,0,0,1
-335.2465,15.65891,-270.1231,0,0,1
-388.6893,15.6388,-255.9853,0,0,1
-445.4648,15.6797,-247.3486,0,0,1
-16.35126,20.30693,-294.1665,0,0,1
-64.98157,20.66021,-301.2867,0,0,1
-111.02,16.24739,-64.67908,1,0,0
-141.5818,16.32139,-61.56606,1,0,0
-146.0917,13.96602,60.19078,0,1,0
-281.7796,21.30705,-285.4536,0,0,1
-393.326,21.38423,-264.203,0,0,1
-447.6413,21.35657,-250.5113,0,0,1
-15.9223,25.49914,-296.8542,0,0,1
-111.0339,19.35053,-65.23984,1,0,0
-141.5818,19.44503,-61.56606,1,0,0
-146.493,15.96659,58.41489,0,1,0
-450.0654,27.1169,-254.0338,0,0,1
-15.44,30.75448,-299.8766,0,0,1
-111.0267,22.43129,-64.94981,1,0,0
-129.3948,18.60144,37.36128,0,1,0
-147.1451,18.04909,55.52915,0,1,0
-62.29797,0.0741272,30.16573,0,0,1
-81.52081,0.0741272,35.687,0,0,1
-100.7436,0.0741272,41.20824,0,0,1
-119.9664,0.07412815,46.72949,0,0,1
-138.2478,0.3356876,57.42323,0,1,0
-158.412,0.0741272,57.77198,0,0,1
-177.6348,0.07412815,63.29323,0,0,1
-196.8576,0.0741272,68.81447,0,0,1
-216.0804,0.0741272,74.33572,0,0,1
-235.3032,0.0741272,79.85698,0,0,1
-52.07263,0.0741272,-24.79285,0,0,1
-76.10114,0.0741272,-17.8913,0,0,1
-100.1296,0.0741272,-10.98975,0,0,1
-124.1581,0.07412714,-4.088196,0,0,1
-148.1866,0.0741272,2.813429,0,0,1
-172.2151,0.0741272,9.714991,0,0,1
-196.2437,0.0741272,16.61657,0,0,1
-220.2722,0.0741272,23.51809,0,0,1
-244.3007,0.0741272,30.41965,0,0,1
-268.3292,0.0741272,37.32124,0,0,1
-35.03027,0.07412696,-116.3904,0,0,1
-67.0683,0.0741272,-107.1884,0,0,1
-99.10632,0.0741272,-97.98633,0,0,1
-129.0679,0.8171982,-63.61015,1,0,0
-138.53,4.184027,55.87312,0,1,0
-195.2203,0.0741272,-70.38013,0,0,1
-227.2584,0.0741272,-61.17792,0,0,1
-259.2963,0.0741272,-51.97583,0,0,1
-259.0172,1.791897,7.518034,1,0.92,0.016
-323.3724,0.0741272,-33.57166,0,0,1
-5.774536,0.5463676,-273.6319,0,0,1
-50.39294,0.3306341,-272.0394,0,0,1
-97.07733,0.1028118,-270.4821,0,0,1
-128.9473,3.931611,-62.14806,1,0,0
-138.5604,6.144007,55.70572,0,1,0
-241.2307,0.07412767,-230.57,0,0,1
-286.2982,0.2347822,-209.268,0,0,1
-337.3447,0.0741272,-202.9638,0,0,1
-258.1029,4.585037,8.940789,1,0.92,0.016
-433.3606,0.07709885,-175.2311,0,0,1
-3.518616,5.199938,-285.757,0,0,1
-49.31201,5.102659,-282.725,0,0,1
-96.87335,4.922346,-287.8248,0,0,1
-128.7415,7.027423,-59.65265,1,0,0
-159.9035,6.923006,-61.56606,1,0,0
-252.0226,4.683203,-268.1432,0,0,1
-307.4592,4.585879,-262.3464,0,0,1
-359.5908,4.599079,-245.9998,0,0,1
-257.8448,7.334156,9.342416,1,0.92,0.016
-479.24,4.381017,-234.3215,0,0,1
-2.738159,10.07413,-289.9518,0,0,1
-48.80103,10.07413,-287.7769,0,0,1
-99.09798,10.07413,-98.70113,1,0,0
-128.6231,10.07413,-58.21775,1,0,0
-159.9035,10.07413,-61.56606,1,0,0
-253.4479,10.07413,-273.1052,0,0,1
-309.3965,10.07413,-267.2059,0,0,1
-364.5116,10.07413,-255.5193,0,0,1
-257.8448,10.07413,9.342421,1,0.92,0.016
-482.6085,10.07413,-238.6599,0,0,1
-2.062134,15.01954,-293.5853,0,0,1
-48.38928,15.13072,-291.8464,0,0,1
-99.19095,13.33859,-90.797,1,0,0
-120.4074,12.12673,41.38323,0,1,0
-159.8857,13.22426,-61.4679,1,0,0
-198.8488,13.53889,-83.01289,1,0,0
-311.2117,15.6632,-271.7588,0,0,1
-258.3492,12.82304,8.557455,1,0.92,0.016
-485.183,15.85721,-241.9758,0,0,1
-1.296631,20.03981,-297.6995,0,0,1
-47.94366,20.26954,-296.2521,0,0,1
-99.2489,16.50867,-85.86964,1,0,0
-128.2502,16.05035,-53.69712,1,0,0
-159.9035,16.37637,-61.56605,1,0,0
-197.955,16.93891,-79.90085,1,0,0
-314.4244,21.42492,-279.8174,0,0,1
-259.2727,15.60467,7.120261,1,0.92,0.016
-487.6864,21.7161,-245.2002,0,0,1
-99.27988,19.65026,-83.23616,1,0,0
-128.3012,19.05668,-54.31477,1,0,0
-159.9035,19.52749,-61.56606,1,0,0
-197.373,20.30806,-77.87458,1,0,0
-259.6403,18.38948,6.548325,1,0.92,0.016
-490.5907,27.669,-248.9407,0,0,1
-99.28479,22.82631,-82.81873,1,0,0
-128.2808,22.04117,-54.06823,1,0,0
-159.2975,22.54391,-58.23631,1,0,0
-197.1424,23.68594,-77.07159,1,0,0
-258.7342,21.09705,7.958301,1,0.92,0.016
-493.8443,33.73098,-253.1311,0,0,1
-77.87811,0.0741272,27.83152,0,0,1
-96.66443,0.0741272,34.69255,0,0,1
-115.4508,0.0741272,41.55357,0,0,1
-134.2371,0.0741272,48.4146,0,0,1
-153.0234,0.0741272,55.27565,0,0,1
-171.8098,0.0741272,62.13667,0,0,1
-190.5961,0.0741272,68.99767,0,0,1
-209.3824,0.0741272,75.8587,0,0,1
-228.1688,0.0741272,82.71973,0,0,1
-246.9551,0.07412815,89.58077,0,0,1
-71.54779,0.0741272,-27.71057,0,0,1
-95.03064,0.0741272,-19.13428,0,0,1
-118.5135,0.0741272,-10.55798,0,0,1
-141.9965,0.07412714,-1.98175,0,0,1
-151.5287,2.314125,61.11768,0,1,0
-188.9623,0.0741272,15.17086,0,0,1
-212.4453,0.0741272,23.74709,0,0,1
-235.9282,0.07412624,32.32336,0,0,1
-259.4111,0.07412624,40.89965,0,0,1
-282.894,0.07412624,49.47592,0,0,1
-60.99719,0.07412696,-120.2808,0,0,1
-92.30768,0.07412696,-108.8458,0,0,1
-121.9041,0.9136296,-68.24551,1,0,0
-148.4726,1.322221,-44.04276,1,0,0
-151.0604,4.310505,62.94781,0,1,0
-217.55,0.07412696,-63.10553,0,0,1
-248.8605,0.0741272,-51.67053,0,0,1
-253.7073,1.569494,3.165375,1,0.92,0.016
-311.4816,0.07412732,-28.80048,0,0,1
-342.7921,0.0741272,-17.36536,0,0,1
-43.42645,0.6318302,-274.4451,0,0,1
-87.37842,0.390377,-271.2459,0,0,1
-121.8135,3.996712,-66.70393,1,0,0
-151.1706,3.891815,-61.56606,1,0,0
-151.0658,6.231289,62.92668,0,1,0
-274.7252,0.0741272,-219.6584,0,0,1
-309.2684,0.6426892,-176.778,0,0,1
-252.6026,4.445989,4.977204,1,0.92,0.016
-396.6735,0.6806526,-142.8358,0,0,1
-462.5885,0.0741272,-151.0481,0,0,1
-42.49695,5.279565,-282.6002,0,0,1
-87.01093,5.119778,-283.3541,0,0,1
-121.6627,7.060051,-64.13678,1,0,0
-151.1706,6.982971,-61.56606,1,0,0
-151.6899,8.127651,60.48743,0,1,0
-291.7562,4.577669,-266.2916,0,0,1
-345.9498,4.518985,-252.7468,0,0,1
-252.2464,7.266768,5.561382,1,0.92,0.016
-465.274,4.27951,-234.6626,0,0,1
-537.925,4.026007,-235.1175,0,0,1
-41.97736,10.07413,-287.1593,0,0,1
-86.82031,10.07413,-289.6337,0,0,1
-121.5527,10.07413,-62.26529,1,0,0
-151.1706,10.07413,-61.56606,1,0,0
-151.7651,10.07413,60.19366,0,1,0
-293.2996,10.07413,-270.5175,0,0,1
-349.1335,10.07413,-259.3407,0,0,1
-252.2464,10.07413,5.561404,1,0.92,0.016
-468.3986,10.07413,-238.8449,0,0,1
-540.9702,10.07413,-238.5156,0,0,1
-41.54907,14.94356,-290.9169,0,0,1
-86.65436,15.1376,-295.1014,0,0,1
-121.5713,13.07329,-62.58216,1,0,0
-151.1706,13.16529,-61.56606,1,0,0
-152.1177,12.03776,58.81543,0,1,0
-294.6453,15.6548,-274.2023,0,0,1
-252.8655,12.89315,4.54597,1,0.92,0.016
-470.9821,15.9601,-242.3032,0,0,1
-543.4078,16.19853,-241.2358,0,0,1
-41.12701,19.87966,-294.62,0,0,1
-86.47229,20.31253,-301.1009,0,0,1
-121.5713,16.07245,-62.58217,1,0,0
-151.1706,16.25644,-61.56606,1,0,0
-152.6839,14.04685,56.60268,0,1,0
-296.1435,21.32282,-278.3044,0,0,1
-253.9801,15.75416,2.718124,1,0.92,0.016
-473.5836,21.92933,-245.7856,0,0,1
-545.7204,22.38727,-243.8163,0,0,1
-40.59564,24.90833,-299.282,0,0,1
-121.5713,19.07161,-62.58217,1,0,0
-151.1706,19.3476,-61.56606,1,0,0
-153.5274,16.13482,53.30591,0,1,0
-170.0497,15.9202,66.95599,0,1,0
-254.2663,18.61035,2.248592,1,0.92,0.016
-476.8762,28.01502,-250.1928,0,0,1
-548.2471,28.64931,-246.6359,0,0,1
-121.2276,21.84632,-56.73375,1,0,0
-136.2574,18.59486,35.29304,0,1,0
-153.5576,18.15987,53.18818,0,1,0
-253.1812,21.374,4.028215,1,0.92,0.016
-91.38904,0.0741272,26.70523,0,0,1
-109.725,0.0741272,34.69221,0,0,1
-128.061,0.0741272,42.67919,0,0,1
-143.7888,0.6779194,62.7019,0,1,0
-164.733,0.0741272,58.65309,0,0,1
-183.069,0.0741272,66.64001,0,0,1
-201.405,0.0741272,74.62698,0,0,1
-219.741,0.0741272,82.61393,0,0,1
-238.077,0.0741272,90.60089,0,0,1
-256.413,0.0741272,98.58784,0,0,1
-88.43646,0.07412732,-29.11841,0,0,1
-111.3564,0.07412708,-19.13477,0,0,1
-134.2764,0.0741272,-9.151001,0,0,1
-143.5484,2.601683,63.81139,0,1,0
-180.1164,0.0741272,10.81637,0,0,1
-203.0364,0.07412624,20.80004,0,0,1
-225.9564,0.0741272,30.78373,0,0,1
-248.8765,0.0741272,40.76744,0,0,1
-271.7964,0.0741272,50.75109,0,0,1
-294.7164,0.07412624,60.73476,0,0,1
-83.51538,0.0741272,-122.1579,0,0,1
-113.1149,0.9573126,-77.15349,1,0,0
-138.4613,1.564175,-44.04835,1,0,0
-143.5128,4.474735,63.97546,0,1,0
-205.7554,0.0741272,-68.91156,0,0,1
-236.3154,0.0741272,-55.59991,0,0,1
-266.8754,0.07412708,-42.28833,0,0,1
-297.4354,0.07412708,-28.97681,0,0,1
-327.9954,0.0741272,-15.66522,0,0,1
-309.9775,1.976493,45.65318,0,0,0
-75.45917,0.6789608,-274.4728,0,0,1
-113.0415,4.041283,-74.72958,1,0,0
-140.562,4.062844,-61.56606,1,0,0
-143.6885,6.32493,63.1647,0,1,0
-257.0333,0.0741272,-228.3673,0,0,1
-293.2744,0.5548592,-186.3632,0,0,1
-317.4037,1.349396,-132.5206,0,0,1
-377.8773,0.6464913,-144.5137,0,0,1
-426.1696,0.4959538,-131.688,0,0,1
-312.9352,4.598478,42.73026,0,0,0
-75.01605,5.301503,-282.8509,0,0,1
-112.924,7.093699,-70.85483,1,0,0
-140.562,7.068486,-61.56606,1,0,0
-143.9798,8.186041,61.8206,0,1,0
-269.2739,4.676277,-266.431,0,0,1
-324.3072,4.537406,-257.6066,0,0,1
-375.4816,4.528978,-236.2347,0,0,1
-442.8589,4.245143,-237.8453,0,0,1
-512.5616,4.003996,-233.7867,0,0,1
-311.1534,7.359568,44.49102,0,0,0
-74.75317,10.07413,-287.821,0,0,1
-112.8306,10.07413,-67.77368,1,0,0
-140.562,10.07413,-61.56606,1,0,0
-144.1038,10.07412,61.2484,0,1,0
-271.3087,10.07413,-272.7583,0,0,1
-326.9476,10.07413,-263.6685,0,0,1
-383.6741,10.07413,-250.8646,0,0,1
-446.6575,10.07413,-243.3011,0,0,1
-516.9296,10.07413,-238.9488,0,0,1
-310.1886,10.07413,45.44453,0,0,0
-74.50574,14.93317,-292.4991,0,0,1
-112.7459,12.99996,-64.97722,1,0,0
-140.562,13.07977,-61.56606,1,0,0
-144.2314,11.97385,60.65942,0,1,0
-273.3638,15.60491,-279.149,0,0,1
-329.8943,15.75076,-270.4333,0,0,1
-387.1375,15.85665,-257.0494,0,0,1
-448.9922,16.00837,-246.6547,0,0,1
-519.8487,16.25231,-242.3986,0,0,1
-311.6919,12.79572,43.95891,0,0,0
-74.19995,19.89577,-298.2805,0,0,1
-112.7175,15.90839,-64.04028,1,0,0
-140.562,16.08541,-61.56606,1,0,0
-144.4407,13.89296,59.69388,0,1,0
-451.1332,22.01609,-249.7296,0,0,1
-522.4038,22.50628,-245.4184,0,0,1
-316.5487,15.64411,39.15917,0,0,0
-112.6851,18.79573,-62.97126,1,0,0
-140.562,19.09105,-61.56606,1,0,0
-144.8528,15.85963,57.79195,0,1,0
-453.4871,28.10826,-253.1105,0,0,1
-524.9564,28.8359,-248.4351,0,0,1
-112.7144,21.7389,-63.93949,1,0,0
-139.247,21.67355,-50.60013,1,0,0
-145.6884,17.94288,53.93636,0,1,0
-527.9562,35.26775,-251.98,0,0,1
-109.6098,0.0741272,26.48501,0,0,1
-127.2345,0.0741272,35.93847,0,0,1
-141.5687,0.8639927,61.55331,0,1,0
-162.4841,0.0741272,54.84527,0,0,1
-180.1089,0.0741272,64.29871,0,0,1
-197.7337,0.0741272,73.75212,0,0,1
-215.3585,0.0741272,83.20555,0,0,1
-232.9833,0.0741272,92.65895,0,0,1
-250.608,0.0741272,102.1124,0,0,1
-268.2328,0.0741272,111.5658,0,0,1
-111.2123,0.0741272,-29.39374,0,0,1
-133.2433,0.0741272,-17.57697,0,0,1
-141.3557,2.746946,62.59988,0,1,0
-177.3053,0.0741272,6.056637,0,0,1
-199.3362,0.0741272,17.87341,0,0,1
-221.3672,0.07412624,29.69015,0,0,1
-243.3983,0.0741272,41.50695,0,0,1
-265.4292,0.0741272,53.3237,0,0,1
-287.4602,0.0741272,65.14047,0,0,1
-309.4912,0.07412624,76.95721,0,0,1
-112.6047,1.270902,-77.94208,1,0,0
-136.429,1.778861,-45.94958,1,0,0
-141.3346,4.581768,62.7034,0,1,0
-202.0071,0.07412696,-75.25781,0,0,1
-231.3818,0.0741272,-59.5022,0,0,1
-260.7565,0.07412732,-43.74646,0,0,1
-267.5271,1.283341,5.624252,1,0.92,0.016
-319.5057,0.07412726,-12.23517,0,0,1
-309.972,1.657824,42.55545,0,0,0
-336.7471,1.583199,54.09419,0,0,0
-112.5267,4.253954,-75.22392,1,0,0
-138.1007,4.265751,-60.83756,1,0,0
-141.5133,6.395393,61.82558,0,1,0
-251.411,0.0741272,-237.8867,0,0,1
-288.7584,0.4233441,-198.0406,0,0,1
-311.1394,1.275619,-137.6795,0,0,1
-265.7271,4.277799,8.301149,1,0.92,0.016
-414.8594,0.4686077,-127.8356,0,0,1
-312.9896,4.381377,39.52804,0,0,0
-337.8283,4.387309,53.1873,0,0,0
-112.4205,7.197189,-71.51936,1,0,0
-138.1824,7.163133,-61.56606,1,0,0
-141.8308,8.219513,60.26603,0,1,0
-260.1817,4.77824,-266.7586,0,0,1
-314.5895,4.577007,-260.4111,0,0,1
-366.517,4.503286,-240.9245,0,0,1
-265.0684,7.187708,9.280658,1,0.92,0.016
-501.0027,3.94388,-232.2697,0,0,1
-310.8808,7.256366,41.64376,0,0,0
-336.8439,7.242654,54.01301,0,0,0
-112.3351,10.07413,-68.54214,1,0,0
-137.3468,10.07413,-54.12368,1,0,0
-141.9507,10.07412,59.67718,0,1,0
-261.8787,10.07413,-272.3446,0,0,1
-316.8039,10.07413,-265.7577,0,0,1
-373.1648,10.07413,-253.3187,0,0,1
-265.0684,10.07413,9.280656,1,0.92,0.016
-505.2623,10.07413,-237.4338,0,0,1
-310.1886,10.07413,42.33816,0,0,0
-335.8696,10.07413,54.8303,0,0,0
-112.2431,12.89574,-65.33596,1,0,0
-137.2156,12.90467,-52.95463,1,0,0
-142.1169,11.94246,58.86135,0,1,0
-263.6678,15.48762,-278.2346,0,0,1
-319.0126,15.68627,-271.0909,0,0,1
-377.8823,15.88542,-262.114,0,0,1
-266.0897,12.97876,7.761853,1,0.92,0.016
-508.3349,16.31736,-241.1586,0,0,1
-312.0466,12.90771,40.47408,0,0,0
-335.9789,12.89513,54.73857,0,0,0
-112.2066,15.69455,-64.06224,1,0,0
-137.1048,15.71678,-51.96857,1,0,0
-142.3988,13.83789,57.47639,0,1,0
-441.6802,22.14559,-253.3633,0,0,1
-511.0937,22.64563,-244.5034,0,0,1
-318.0084,15.90308,34.49293,0,0,0
-338.1333,15.76834,52.93147,0,0,0
-112.1867,18.48614,-63.36832,1,0,0
-137.0307,18.5196,-51.30847,1,0,0
-143.2671,15.84481,53.21201,0,1,0
-446.0599,28.41562,-259.8764,0,0,1
-513.9221,29.06214,-247.9324,0,0,1
-585.0259,29.68601,-233.3924,0,0,1
-340.3364,18.69555,51.08342,0,0,0
-112.2134,21.32344,-64.29883,1,0,0
-136.9857,21.31976,-50.90733,1,0,0
-164.8162,21.90648,-52.62438,1,0,0
-266.3255,21.70947,7.411265,1,0.92,0.016
-517.2877,35.59894,-252.0125,0,0,1
-342.2664,21.66291,49.4645,0,0,0
-125.999,0.0741272,27.55852,0,0,1
-139.1382,1.017649,58.25661,0,1,0
-159.7657,0.0741272,49.00175,0,0,1
-176.649,0.0741272,59.72336,0,0,1
-193.5324,0.0741272,70.445,0,0,1
-210.4157,0.0741272,81.1666,0,0,1
-227.299,0.07412815,91.88824,0,0,1
-244.1824,0.0741272,102.6098,0,0,1
-261.0658,0.0741272,113.3315,0,0,1
-277.9491,0.0741272,124.0531,0,0,1
-131.6989,0.0741272,-28.05182,0,0,1
-139.7837,2.698811,54.8126,0,1,0
-173.9073,0.0741272,-1.247742,0,0,1
-195.0114,0.0741272,12.15424,0,0,1
-216.1156,0.0741272,25.55625,0,0,1
-237.2197,0.0741272,38.9583,0,0,1
-258.324,0.0741272,52.36025,0,0,1
-279.4281,0.0741272,65.7623,0,0,1
-300.5323,0.0741272,79.16433,0,0,1
-321.6365,0.0741272,92.56637,0,0,1
-133.7868,2.024678,-48.4219,1,0,0
-139.5219,4.582212,56.20907,0,1,0
-197.4766,0.07412744,-84.99713,0,0,1
-225.6154,0.0741272,-67.12769,0,0,1
-253.7543,0.0741272,-49.25836,0,0,1
-257.6848,1.428871,6.73202,1,0.92,0.016
-310.032,0.0741272,-13.51971,0,0,1
-338.171,0.0741272,4.349723,0,0,1
-330.5018,1.435088,53.21902,0,0,0
-394.4488,0.0741272,40.08847,0,0,1
-134.7994,4.530172,-58.30128,1,0,0
-139.5539,6.409626,56.03857,0,1,0
-158.586,6.157551,53.19363,0,1,0
-285.4713,0.1477594,-222.189,0,0,1
-329.0316,0.0741272,-198.8876,0,0,1
-256.7389,4.345914,8.221583,1,0.92,0.016
-405.5146,0.3298473,-135.1713,0,0,1
-311.4728,4.16495,32.26127,0,0,0
-327.4875,4.391134,55.82854,0,0,0
-540.0734,0.0741272,-64.86719,0,0,1
-134.6192,7.317956,-56.54343,1,0,0
-140.1728,8.210684,52.73655,0,1,0
-158.612,8.114918,53.10125,0,1,0
-301.6854,4.669437,-264.1931,0,0,1
-354.3478,4.51362,-249.2084,0,0,1
-256.4057,7.216237,8.746312,1,0.92,0.016
-483.0666,3.952153,-233.9781,0,0,1
-310.4473,7.134087,33.33338,0,0,0
-327.7123,7.229785,55.63392,0,0,0
-636.8575,3.966438,-134.6223,0,0,1
-134.4635,10.07413,-55.02415,1,0,0
-161.5967,10.07413,-61.56606,1,0,0
-196.8573,10.07413,-82.79655,1,0,0
-171.8656,10.07412,72.11523,0,1,0
-358.4292,10.07413,-257.321,0,0,1
-256.4057,10.07413,8.74631,1,0.92,0.016
-486.5402,10.07413,-238.4037,0,0,1
-310.1886,10.07413,33.60383,0,0,0
-329.4861,10.07413,54.09838,0,0,0
-642.4759,10.07413,-138.6716,0,0,1
-134.4526,12.81568,-54.91724,1,0,0
-160.4872,12.96141,-55.64689,1,0,0
-195.4996,13.33756,-77.97245,1,0,0
-172.2436,11.95416,71.13617,0,1,0
-256.9445,12.94207,7.897754,1,0.92,0.016
-489.2568,16.29586,-241.8649,0,0,1
-312.5788,13.0444,31.10501,0,0,0
-327.1176,12.91094,56.14876,0,0,0
-647.1376,16.29947,-142.0314,0,0,1
-134.3331,15.53627,-53.75163,1,0,0
-160.3851,15.83839,-55.10201,1,0,0
-194.6396,16.54018,-74.9164,1,0,0
-172.4905,13.84765,70.49648,0,1,0
-257.8996,15.84564,6.393845,1,0.92,0.016
-491.9295,22.60374,-245.2701,0,0,1
-566.8414,23.22869,-234.7133,0,0,1
-330.5615,15.83501,53.16732,0,0,0
-650.8373,22.6095,-144.6979,0,0,1
-134.2696,18.25062,-53.13168,1,0,0
-160.6264,18.75699,-56.38911,1,0,0
-194.0166,19.70713,-72.7028,1,0,0
-172.9663,15.77328,69.26383,0,1,0
-258.0679,18.74082,6.128708,1,0.92,0.016
-494.9253,29.0134,-249.0871,0,0,1
-570.1661,29.94746,-238.1889,0,0,1
-332.9992,18.80807,51.05693,0,0,0
-655.1062,29.02376,-147.7747,0,0,1
-124.7353,17.63069,39.88826,0,1,0
-160.0266,21.53037,-53.18931,1,0,0
-193.7844,22.88529,-71.87759,1,0,0
-173.8145,17.76538,67.06656,0,1,0
-257.1334,21.55999,7.600454,1,0.92,0.016
-498.1002,35.53116,-253.132,0,0,1
-335.53,21.84763,48.86597,0,0,0
-141.6425,0.0741272,29.72253,0,0,1
-157.7269,0.0741272,41.60905,0,0,1
-173.8114,0.0741272,53.4956,0,0,1
-189.8959,0.0741272,65.38213,0,0,1
-205.9803,0.0741272,77.26865,0,0,1
-222.0649,0.0741272,89.15518,0,0,1
-238.1494,0.07412815,101.0417,0,0,1
-254.2338,0.0741272,112.9283,0,0,1
-270.3183,0.0741272,124.8148,0,0,1
-286.4028,0.0741272,136.7013,0,0,1
-151.2532,0.0741272,-25.3468,0,0,1
-152.6404,2.820389,61.04877,0,1,0
-191.4644,0.0741272,4.369438,0,0,1
-211.57,0.0741272,19.22765,0,0,1
-231.6756,0.0741272,34.08584,0,0,1
-251.7811,0.0741272,48.944,0,0,1
-271.8868,0.0741272,63.80215,0,0,1
-291.9924,0.0741272,78.66034,0,0,1
-312.098,0.0741272,93.51846,0,0,1
-331.7676,0.09316444,108.6463,0,0,1
-154.5161,2.064879,-44.04276,1,0,0
-152.5025,4.649002,61.57576,0,1,0
-220.886,0.07412696,-77.50732,0,0,1
-247.6935,0.07412744,-57.69653,0,0,1
-252.2919,1.370619,-0.5614467,1,0.92,0.016
-301.3085,0.07412732,-18.07477,0,0,1
-328.1158,0.07412815,1.736209,0,0,1
-319.5873,1.477883,53.61647,0,0,0
-381.7308,0.0741272,41.35798,0,0,1
-408.5383,0.07412624,61.16883,0,0,1
-157.5742,4.416427,-61.56606,1,0,0
-152.3699,6.467094,62.08223,0,1,0
-279.5732,0.08296824,-240.8268,0,0,1
-306.9126,0.6752062,-183.8022,0,0,1
-251.1721,4.315366,1.320402,1,0.92,0.016
-389.2788,0.4471231,-137.1135,0,0,1
-440.574,0.07412744,-122.3957,0,0,1
-317.9586,4.38648,55.09455,0,0,0
-365.0015,3.807883,53.88953,0,0,0
-561.2076,0.0741272,-33.2467,0,0,1
-157.5742,7.245276,-61.56606,1,0,0
-153.0271,8.246506,59.5707,0,1,0
-288.9312,4.813495,-266.8688,0,0,1
-340.1867,4.607066,-254.6586,0,0,1
-250.7698,7.202577,1.996596,1,0.92,0.016
-461.6963,4.042146,-235.1064,0,0,1
-541.7814,3.574203,-234.1088,0,0,1
-317.7677,7.232811,55.26785,0,0,0
-367.7023,6.908686,51.86643,0,0,0
-648.4266,4.121973,-87.18561,0,0,1
-157.5742,10.07413,-61.56606,1,0,0
-153.2292,10.07412,58.79843,0,1,0
-290.4006,10.07413,-270.9579,0,0,1
-343.0939,10.07413,-260.8494,0,0,1
-250.7698,10.07413,1.996603,1,0.92,0.016
-464.803,10.07413,-239.3103,0,0,1
-545.085,10.07413,-237.7554,0,0,1
-318.4763,10.0741,54.62476,0,0,0
-363.6198,10.07414,54.92448,0,0,0
-651.592,10.07413,-89.14313,0,0,1
-157.0715,12.87682,-58.68517,1,0,0
-153.782,11.92942,56.68594,0,1,0
-291.7224,15.41382,-274.6365,0,0,1
-347.4507,15.70876,-270.1273,0,0,1
-251.4079,12.9581,0.9242733,1,0.92,0.016
-467.2567,16.19967,-242.6305,0,0,1
-547.5708,16.65985,-240.4992,0,0,1
-317.8718,12.91681,55.17336,0,0,0
-364.6685,13.20327,54.13906,0,0,0
-654.1204,16.08844,-90.70679,0,0,1
-157.5742,15.73183,-61.56606,1,0,0
-154.6305,13.84698,53.4429,0,1,0
-293.1821,20.83619,-278.6985,0,0,1
-252.5372,15.88601,-0.9736016,1,0.92,0.016
-469.7289,22.4084,-245.9759,0,0,1
-550.0345,23.31861,-243.2188,0,0,1
-327.4892,16.01423,46.44507,0,0,0
-653.4819,23.24518,-162.2052,0,0,1
-656.4684,22.15402,-92.15894,0,0,1
-157.5742,18.56068,-61.56606,1,0,0
-185.3306,19.11153,-63.88551,1,0,0
-296.1019,26.46533,-286.8241,0,0,1
-253.0862,18.824,-1.896243,1,0.92,0.016
-472.9249,28.73686,-250.3007,0,0,1
-553.0148,30.07335,-246.5083,0,0,1
-333.4726,19.22198,41.01482,0,0,0
-370.6796,19.67736,49.63619,0,0,0
-658.7806,28.26969,-93.58893,0,0,1
-157.5742,21.38953,-61.56606,1,0,0
-184.3914,21.9862,-60.29602,1,0,0
-251.5979,21.62479,0.6049216,1,0.92,0.016
-336.4901,22.43109,38.27623,0,0,0
-661.1454,34.43814,-95.05139,0,0,1
-149.3514,1.485365,63.5775,0,1,0
-172.1497,0.0741272,45.92678,0,0,1
-187.3647,0.0741272,58.90778,0,0,1
-202.5796,0.0741272,71.88876,0,0,1
-217.7946,0.0741272,84.86976,0,0,1
-233.0095,0.0741272,97.85074,0,0,1
-248.2244,0.0741272,110.8317,0,0,1
-263.4393,0.0741272,123.8127,0,0,1
-278.6542,0.0741272,136.7937,0,0,1
-293.8692,0.0741272,149.7747,0,0,1
-149.9838,3.108982,61.0234,0,1,0
-189.3873,0.0741272,-5.091553,0,0,1
-208.4059,0.0741272,11.13468,0,0,1
-227.4246,0.0741272,27.36096,0,0,1
-246.4432,0.07412815,43.58721,0,0,1
-265.4619,0.07412815,59.81345,0,0,1
-284.4806,0.07412815,76.03967,0,0,1
-303.4993,0.0741272,92.26592,0,0,1
-322.5179,0.0741272,108.4921,0,0,1
-308.3673,1.465823,142.1538,0,0,1
-149.7121,4.880596,62.12075,0,1,0
-218.1166,0.07412696,-90.12201,0,0,1
-243.4748,0.07412744,-68.48712,0,0,1
-268.8329,0.07412744,-46.85211,0,0,1
-294.1912,0.07412708,-25.2171,0,0,1
-319.5494,0.07412726,-3.582153,0,0,1
-310.2041,1.509916,51.35491,0,0,0
-353.9657,0.6844769,52.52395,0,0,0
-395.624,0.0741272,61.32288,0,0,1
-420.9822,0.0741272,82.95785,0,0,1
-149.7859,6.606281,61.82267,0,1,0
-273.0859,0.2185316,-252.8158,0,0,1
-298.68,0.7837968,-193.8275,0,0,1
-317.1422,1.463039,-133.4329,0,0,1
-375.1402,0.5818901,-141.864,0,0,1
-425.8619,0.1315138,-128.1903,0,0,1
-312.7588,4.294173,48.90339,0,0,0
-351.0662,3.886735,54.80734,0,0,0
-541.8363,0.0741272,-33.01569,0,0,1
-579.8735,0.0741272,-0.5631714,0,0,1
-149.8737,8.336935,61.46815,0,1,0
-278.1118,5.000547,-267.6909,0,0,1
-326.7266,4.762498,-257.5055,0,0,1
-374.8729,4.606767,-236.8992,0,0,1
-441.5732,4.16857,-237.5931,0,0,1
-516.361,3.70849,-234.2635,0,0,1
-312.8898,7.182357,48.77771,0,0,0
-349.218,7.003501,56.26277,0,0,0
-645.2867,3.8949,-99.76367,0,0,1
-663.252,4.199542,-44.39099,0,0,1
-149.9672,10.07413,61.09026,0,1,0
-279.8021,10.07413,-272.6937,0,0,1
-329.2484,10.07413,-263.2313,0,0,1
-382.7856,10.07413,-251.0807,0,0,1
-445.6597,10.07413,-243.4816,0,0,1
-520.7642,10.07413,-239.4244,0,0,1
-310.4339,10.07412,51.13438,0,0,0
-349.1572,10.07413,56.31064,0,0,0
-649.0448,10.07413,-102.1885,0,0,1
-668.6353,10.07413,-47.22076,0,0,1
-150.0402,11.8175,60.79539,0,1,0
-281.2647,15.23916,-277.0227,0,0,1
-332.1442,15.51449,-269.806,0,0,1
-386.3094,15.77164,-257.3961,0,0,1
-448.0754,16.09316,-246.9626,0,0,1
-523.6135,16.5515,-242.7642,0,0,1
-312.1441,12.95563,49.4933,0,0,0
-350.0749,13.15546,55.58798,0,0,0
-652.1348,16.33142,-104.1822,0,0,1
-672.6476,16.04727,-49.32977,0,0,1
-150.299,13.58016,59.75003,0,1,0
-283.1512,20.51364,-282.6063,0,0,1
-450.2945,22.18967,-250.1606,0,0,1
-526.1708,23.10769,-245.7617,0,0,1
-318.0091,15.9989,43.86512,0,0,0
-351.7895,16.27958,54.2377,0,0,0
-654.9515,22.65292,-105.9994,0,0,1
-477.8318,17.93343,53.07484,1,0,0
-150.771,15.38587,57.84373,0,1,0
-452.7776,28.37745,-253.7387,0,0,1
-528.7653,29.74438,-248.8026,0,0,1
-355.7092,19.52908,51.15099,0,0,0
-657.7215,29.03704,-107.7868,0,0,1
-472.8917,21.70763,55.67155,1,0,0
-151.767,17.30475,53.82043,0,1,0
-532.0769,36.50523,-252.684,0,0,1
-660.9885,35.50697,-109.8947,0,0,1
-473.1299,25.59536,55.54636,1,0,0
-171.76,0.0741272,37.16321,0,0,1
-186.0445,0.0741272,51.16154,0,0,1
-200.329,0.07412624,65.15981,0,0,1
-214.6135,0.0741272,79.15813,0,0,1
-228.8981,0.07412815,93.15646,0,0,1
-243.1826,0.0741272,107.1548,0,0,1
-257.4672,0.0741272,121.1531,0,0,1
-271.7517,0.0741272,135.1514,0,0,1
-286.0362,0.07412624,149.1497,0,0,1
-297.4335,0.2205973,164.4201,0,0,1
-188.9001,0.0741272,-16.04596,0,0,1
-206.7557,0.0741272,1.451924,0,0,1
-224.6115,0.0741272,18.94978,0,0,1
-242.4671,0.0741272,36.4477,0,0,1
-260.3228,0.0741272,53.94559,0,0,1
-278.1784,0.0741272,71.44345,0,0,1
-296.0341,0.0741272,88.94137,0,0,1
-313.8896,0.0741272,106.4392,0,0,1
-306.3727,1.184304,137.9323,0,0,1
-331.627,0.8035908,149.3544,0,0,1
-217.467,0.07412696,-104.7279,0,0,1
-241.2745,0.07412744,-81.39746,0,0,1
-265.0821,0.0741272,-58.06689,0,0,1
-260.9107,1.580878,8.166288,1,0.92,0.016
-312.6971,0.0741272,-11.40588,0,0,1
-320.7234,0.7505474,28.02851,0,0,0
-360.3121,0.07412815,35.25517,0,0,1
-384.1198,0.0741272,58.58563,0,0,1
-382.7747,0.8995409,95.79003,0,0,1
-431.7349,0.0741272,105.2467,0,0,1
-266.3245,0.5569777,-256.3998,0,0,1
-300.3818,0.5535879,-223.2623,0,0,1
-346.0233,0.0741272,-212.1004,0,0,1
-259.962,4.446026,9.621185,1,0.92,0.016
-408.5511,0.3571801,-131.0101,0,0,1
-313.0658,4.077226,35.84269,0,0,0
-338.9007,3.962646,53.13846,0,0,0
-524.5798,0.0741272,-37.12158,0,0,1
-560.2911,0.0741272,-2.125732,0,0,1
-461.566,2.802125,92.10284,1,0,0
-269.7997,5.214178,-267.188,0,0,1
-315.8486,4.940466,-260.3847,0,0,1
-362.9163,4.726284,-244.2481,0,0,1
-259.6548,7.26559,10.09215,1,0.92,0.016
-490.6257,3.909758,-233.4207,0,0,1
-310.8869,7.106814,38.06617,0,0,0
-337.852,7.031967,54.01422,0,0,0
-641.5373,3.686337,-116.8145,0,0,1
-661.4831,3.967216,-57.94196,0,0,1
-461.566,6.438128,92.10286,1,0,0
-271.6025,10.07413,-272.7845,0,0,1
-317.9822,10.07413,-265.5059,0,0,1
-368.2731,10.07413,-254.4423,0,0,1
-259.6548,10.07413,10.09214,1,0.92,0.016
-494.037,10.07413,-237.6771,0,0,1
-310.1886,10.07413,38.7787,0,0,0
-336.831,10.07412,54.867,0,0,0
-645.508,10.07413,-119.52,0,0,1
-668.1455,10.07413,-61.61682,0,0,1
-461.566,10.07413,92.10287,1,0,0
-273.4028,15.03918,-278.3732,0,0,1
-320.0737,15.30979,-270.5255,0,0,1
-373.3616,15.63705,-264.1259,0,0,1
-260.1884,12.89224,9.273991,1,0.92,0.016
-496.8463,16.33747,-241.1826,0,0,1
-314.5708,13.09409,34.30695,0,0,0
-337.2096,13.10795,54.55078,0,0,0
-648.7561,16.54757,-121.7333,0,0,1
-673.0007,16.30703,-64.29492,0,0,1
-461.566,13.71013,92.10289,1,0,0
-276.6351,20.19282,-288.4073,0,0,1
-261.1465,15.74476,7.804764,1,0.92,0.016
-499.4746,22.68446,-244.4623,0,0,1
-573.9668,23.52624,-230.3928,0,0,1
-339.8959,16.21142,52.30721,0,0,0
-651.7247,23.09147,-123.7559,0,0,1
-679.5665,22.68357,-67.91644,0,0,1
-461.566,17.34614,92.10286,1,0,0
-261.4165,18.59461,7.390805,1,0.92,0.016
-502.2347,29.12137,-247.9061,0,0,1
-578.4727,30.44543,-234.9908,0,0,1
-341.7359,19.35163,50.77036,0,0,0
-654.6052,29.70268,-125.7186,0,0,1
-461.566,20.98214,92.10286,1,0,0
-260.4635,21.36634,8.85215,1,0.92,0.016
-505.3731,35.67019,-251.8221,0,0,1
-343.5527,22.53834,49.25296,0,0,0
-657.8994,36.40189,-127.9633,0,0,1
-460.1884,24.56223,92.70985,1,0,0
-188.6167,0.0741272,43.35067,0,0,1
-201.732,0.0741272,58.45001,0,0,1
-214.8472,0.07412624,73.54936,0,0,1
-227.9625,0.0741272,88.64869,0,0,1
-241.0777,0.0741272,103.7481,0,0,1
-254.193,0.0741272,118.8474,0,0,1
-267.3082,0.07412815,133.9467,0,0,1
-280.4235,0.0741272,149.0461,0,0,1
-293.5388,0.0741272,164.1454,0,0,1
-291.2562,0.8309469,184.5997,0,0,1
-209.9709,0.07412714,-8.311707,0,0,1
-226.3651,0.0741272,10.56252,0,0,1
-242.7592,0.0741272,29.43669,0,0,1
-259.1532,0.0741272,48.31087,0,0,1
-275.5472,0.0741272,67.18512,0,0,1
-291.9413,0.0741272,86.05926,0,0,1
-308.3354,0.0741272,104.9334,0,0,1
-307.2986,0.8609648,133.7369,0,0,1
-314.179,1.206616,154.8355,0,0,1
-357.2,0.08661938,161.6665,0,0,1
-245.5615,0.0741272,-94.41559,0,0,1
-267.4202,0.0741272,-69.25,0,0,1
-257.1208,1.802325,6.739263,1,0.92,0.016
-311.1378,0.0741272,-18.91888,0,0,1
-332.9965,0.07412624,6.24676,0,0,1
-354.8553,0.0741272,31.41233,0,0,1
-376.7141,0.0741272,56.57792,0,0,1
-378.2679,0.7615576,93.30997,0,0,1
-420.4316,0.0741272,106.9091,0,0,1
-377.7961,1.976101,154.5038,0,0,1
-304.3513,0.6543913,-236.6454,0,0,1
-347.6196,0.1517019,-225.16,0,0,1
-256.2188,4.591909,8.164804,1,0.92,0.016
-405.7603,0.3737857,-141.2906,0,0,1
-312.7447,3.994802,27.72846,0,0,0
-327.0307,4.14457,55.58074,0,0,0
-513.4713,0.07412732,-40.13318,0,0,1
-546.2595,0.0741272,-2.384705,0,0,1
-460.7496,2.560176,88.72309,1,0,0
-465.0485,2.960029,124.16,1,0,0
-314.4866,5.126948,-261.1655,0,0,1
-359.0104,4.881706,-247.304,0,0,1
-255.9661,7.337546,8.564214,1,0.92,0.016
-477.4379,4.074937,-233.9885,0,0,1
-312.7013,7.035037,27.7746,0,0,0
-327.5128,7.102958,55.16191,0,0,0
-637.2571,3.565546,-127.671,0,0,1
-658.5016,3.807457,-66.32227,0,0,1
-461.566,6.308575,88.3548,1,0,0
-462.4163,6.542953,125.0753,1,0,0
-316.4172,10.07413,-265.8367,0,0,1
-363.4205,10.07413,-255.8774,0,0,1
-255.9661,10.07413,8.564217,1,0.92,0.016
-481.0568,10.07413,-238.6687,0,0,1
-310.3358,10.07413,30.28374,0,0,0
-326.7916,10.07409,55.78836,0,0,0
-641.8605,10.07413,-130.9265,0,0,1
-665.3286,10.07413,-70.2113,0,0,1
-461.566,10.07413,88.35484,1,0,0
-460.6805,10.07413,125.679,1,0,0
-318.3484,15.11173,-270.5087,0,0,1
-369.666,15.48283,-268.0187,0,0,1
-256.4632,12.81962,7.778495,1,0.92,0.016
-483.8295,16.17578,-242.2546,0,0,1
-560.204,16.70323,-234.7598,0,0,1
-326.2751,13.02891,56.23695,0,0,0
-645.9547,16.68871,-133.8217,0,0,1
-669.9909,16.47046,-72.86707,0,0,1
-457.877,13.80092,90.01882,1,0,0
-462.7201,13.60829,124.9697,1,0,0
-257.3744,15.59775,6.338467,1,0.92,0.016
-486.5013,22.36309,-245.71,0,0,1
-562.6911,23.40449,-237.3978,0,0,1
-327.7335,16.02231,54.97028,0,0,0
-649.7024,23.39463,-136.4722,0,0,1
-675.9543,23.00138,-76.26416,0,0,1
-458.6611,17.5442,89.66513,1,0,0
-461.6508,17.12144,125.3416,1,0,0
-257.7431,18.37937,5.755813,1,0.92,0.016
-489.7531,28.66395,-249.9154,0,0,1
-565.922,30.21027,-240.825,0,0,1
-333.097,19.20953,50.31156,0,0,0
-653.3757,30.18919,-139.0697,0,0,1
-457.4644,21.2415,90.20493,1,0,0
-461.1838,20.63131,125.504,1,0,0
-256.8491,21.08373,7.168674,1,0.92,0.016
-493.4302,35.09635,-254.6709,0,0,1
-336.5162,22.43581,47.34157,0,0,0
-658.8763,37.16235,-142.9595,0,0,1
-453.2546,24.78702,92.10374,1,0,0
-457.1563,23.99201,126.9046,1,0,0
-203.3165,0.0741272,50.0584,0,0,1
-215.3071,0.0741272,66.06543,0,0,1
-227.2977,0.0741272,82.07245,0,0,1
-239.2884,0.0741272,98.07948,0,0,1
-251.279,0.07412815,114.0865,0,0,1
-263.2697,0.0741272,130.0935,0,0,1
-275.2603,0.07412815,146.1006,0,0,1
-287.2509,0.0741272,162.1076,0,0,1
-290.32,0.529211,181.386,0,0,1
-289.5158,1.118023,199.9547,0,0,1
-228.3456,0.0741272,0.07304549,0,0,1
-243.3339,0.0741272,20.0818,0,0,1
-258.3223,0.0741272,40.09053,0,0,1
-273.3105,0.0741272,60.09933,0,0,1
-288.2989,0.0741272,80.10812,0,0,1
-303.2872,0.0741272,100.1169,0,0,1
-313.8926,0.2779074,122.7723,0,0,1
-309.5892,1.103169,151.4401,0,0,1
-347.8355,0.09112835,160.296,0,0,1
-360.6628,0.1732483,180.8443,0,0,1
-270.061,0.0741272,-83.2359,0,0,1
-253.5052,2.029766,3.394011,1,0.92,0.016
-310.0298,0.07412708,-29.87927,0,0,1
-330.0142,0.0741272,-3.200867,0,0,1
-316.0352,1.450291,54.65061,0,0,0
-369.9831,0.0741272,50.15586,0,0,1
-372.2025,0.6936188,87.56171,0,0,1
-409.9519,0.0741272,103.5126,0,0,1
-380.5019,1.587102,148.3177,0,0,1
-375.1648,2.23021,176.9491,0,0,1
-345.4014,0.3973646,-233.6967,0,0,1
-252.4612,4.748468,5.106843,1,0.92,0.016
-394.4598,0.6860704,-144.1284,0,0,1
-443.4216,0.0741272,-129.8013,0,0,1
-317.5256,4.284651,53.28267,0,0,0
-365.3361,3.52359,53.63687,0,0,0
-533.3515,0.07412726,-9.748718,0,0,1
-464.7146,2.217301,77.36095,1,0,0
-461.6164,2.761069,118.5743,1,0,0
-494.3756,2.552697,144.9285,1,0,0
-353.8661,5.066648,-250.6016,0,0,1
-252.2212,7.415579,5.500622,1,0.92,0.016
-461.881,4.293521,-235.3614,0,0,1
-537.546,3.690849,-234.8755,0,0,1
-317.169,7.184198,53.60998,0,0,0
-640.3528,3.362655,-152.3746,0,0,1
-651.2634,3.703543,-80.95007,0,0,1
-459.4816,6.202579,79.85993,1,0,0
-458.9609,6.444693,119.5481,1,0,0
-488.0944,6.373799,146.6157,1,0,0
-357.3428,10.07413,-257.5447,0,0,1
-252.2212,10.07413,5.500646,1,0.92,0.016
-464.7996,10.07413,-239.311,0,0,1
-540.8258,10.07413,-238.5367,0,0,1
-316.2896,10.07413,54.41707,0,0,0
-363.6182,10.07413,54.9237,0,0,0
-654.8293,10.07413,-83.10339,0,0,1
-457.2042,10.07413,80.94754,1,0,0
-457.4991,10.07413,120.084,1,0,0
-484.0918,10.07413,147.6908,1,0,0
-252.7816,12.74267,4.5811,1,0.92,0.016
-467.1508,15.93966,-242.4925,0,0,1
-543.3972,16.5434,-241.4073,0,0,1
-316.8589,12.95989,53.89462,0,0,0
-364.7146,13.34164,54.10242,0,0,0
-657.6711,16.51919,-84.8194,0,0,1
-454.5906,13.89253,82.19561,1,0,0
-454.4114,13.65716,121.2163,1,0,0
-481.957,13.71546,148.2642,1,0,0
-253.8357,15.44883,2.85176,1,0.92,0.016
-469.5021,21.88099,-245.6743,0,0,1
-545.8455,23.08463,-244.1404,0,0,1
-325.3481,16.07494,46.10286,0,0,0
-653.973,23.83743,-162.5773,0,0,1
-660.2982,23.02533,-86.40582,0,0,1
-453.5522,17.68837,82.6915,1,0,0
-454.4166,17.24029,121.2144,1,0,0
-480.7201,17.333,148.5964,1,0,0
-254.4148,18.16717,1.901598,1,0.92,0.016
-472.3803,27.92358,-249.5692,0,0,1
-548.5883,29.7108,-247.2024,0,0,1
-333.6605,19.41212,38.47339,0,0,0
-662.9536,29.59353,-88.00934,0,0,1
-453.073,21.47985,82.92037,1,0,0
-453.9207,20.80816,121.3962,1,0,0
-480.0172,20.94216,148.7852,1,0,0
-253.3846,20.79134,3.591791,1,0.92,0.016
-665.9332,36.23854,-89.80859,0,0,1
-453.0661,25.28147,82.92368,1,0,0
-453.7783,24.3804,121.4484,1,0,0
-479.8356,24.55786,148.834,1,0,0
-215.1589,0.0741272,56.44092,0,0,1
-226.1653,0.0741272,73.14005,0,0,1
-237.1716,0.07412624,89.83919,0,0,1
-248.178,0.0741272,106.5383,0,0,1
-259.1843,0.07412815,123.2374,0,0,1
-270.1907,0.0741272,139.9365,0,0,1
-281.197,0.07412815,156.6357,0,0,1
-289.6136,0.2111454,174.3852,0,0,1
-288.7766,0.795743,194.3611,0,0,1
-291.6138,1.145243,211.3674,0,0,1
-243.1488,0.0741272,8.051172,0,0,1
-256.9067,0.07412624,28.92506,0,0,1
-270.6647,0.0741272,49.79897,0,0,1
-284.4225,0.0741272,70.67288,0,0,1
-298.1805,0.0741272,91.54676,0,0,1
-311.9385,0.0741272,112.4207,0,0,1
-305.2357,0.9937239,144.0268,0,0,1
-335.5958,0.2374496,155.7336,0,0,1
-353.2123,0.0741272,175.0423,0,0,1
-363.5611,0.2033739,196.6153,0,0,1
-289.7986,0.07412696,-72.59845,0,0,1
-308.1425,0.07412708,-44.76654,0,0,1
-326.4864,0.0741272,-16.93469,0,0,1
-309.9709,1.516802,45.39183,0,0,0
-363.1742,0.0741272,38.72901,0,0,1
-381.5181,0.0741272,66.56088,0,0,1
-384.325,0.5978537,102.5423,0,0,1
-408.4257,0.3846045,126.1918,0,0,1
-373.262,1.972668,169.0312,0,0,1
-380.6917,2.183974,193.1028,0,0,1
-372.9249,0.4375873,-216.3098,0,0,1
-380.5439,1.05229,-148.9004,0,0,1
-420.4924,0.6007283,-129.3167,0,0,1
-313.0137,4.285279,42.38088,0,0,0
-342.7563,3.931048,55.32184,0,0,0
-520.6775,0.0741272,-25.15869,0,0,1
-548.1932,0.0741272,16.58916,0,0,1
-461.566,2.489807,104.6365,1,0,0
-477.8873,2.580757,137.6628,1,0,0
-630.7408,0.0741272,141.8325,0,0,1
-252.1863,7.412686,-7.573071,1,0.92,0.016
-442.6865,4.552475,-238.2795,0,0,1
-506.9355,4.046964,-232.6577,0,0,1
-311.142,7.205532,44.23304,0,0,0
-343.4585,6.993589,54.75114,0,0,0
-644.5197,3.590909,-106.7827,0,0,1
-662.8486,3.785847,-43.5506,0,0,1
-461.566,6.281968,104.6365,1,0,0
-474.2592,6.363723,138.7506,1,0,0
-698.7505,4.429537,127.8878,0,0,1
-252.1862,10.07413,-7.572931,1,0.92,0.016
-446.2263,10.07413,-243.3705,0,0,1
-511.5212,10.07413,-238.14,0,0,1
-310.1886,10.07413,45.17644,0,0,0
-343.1095,10.07413,55.03483,0,0,0
-648.9159,10.07413,-109.6804,0,0,1
-668.6353,10.07413,-46.58575,0,0,1
-461.566,10.07413,104.6365,1,0,0
-471.5057,10.07413,139.5761,1,0,0
-712.2104,10.07413,125.1279,0,0,1
-394.1791,15.27208,-253.0551,0,0,1
-448.4783,15.68998,-246.6097,0,0,1
-514.6064,16.21581,-241.8281,0,0,1
-312.2124,12.9575,43.17376,0,0,0
-343.8818,13.1601,54.40714,0,0,0
-652.3361,16.65096,-111.9345,0,0,1
-483.2665,14.34466,50.6448,1,0,0
-461.566,13.86629,104.6365,1,0,0
-469.4084,13.73603,140.2049,1,0,0
-723.2042,15.95049,122.8738,0,0,1
-397.3153,20.58207,-258.4768,0,0,1
-450.5145,21.37207,-249.5382,0,0,1
-517.2803,22.43732,-245.0246,0,0,1
-317.858,15.99662,37.58721,0,0,0
-345.6812,16.29222,52.94484,0,0,0
-655.3184,23.29923,-113.9001,0,0,1
-472.9747,18.38381,56.04317,1,0,0
-461.566,17.65845,104.6365,1,0,0
-468.1666,17.3731,140.5772,1,0,0
-452.7119,27.12825,-252.6986,0,0,1
-519.9746,28.73958,-248.2456,0,0,1
-348.6582,19.51578,50.52559,0,0,0
-658.4626,30.02475,-115.9725,0,0,1
-468.6509,22.3929,58.31109,1,0,0
-461.566,21.45061,104.6365,1,0,0
-467.4525,21.00116,140.7913,1,0,0
-456.1014,33.03349,-257.5738,0,0,1
