166.9048,20.62466,338.0127,1,0,1
102.9897,18.17989,297.3974,1,0,1
253.7929,24.19918,297.3576,1,0,1
358.9186,28.47784,265.7922,0,0,1
494.5792,34.03667,210.7844,0,0,1
108.5412,0.0741272,321.8748,0,0,1
102.9278,0.2125778,301.3398,1,0,1
103.1019,0.0741272,282.2463,0,0,1
100.3823,0.0741272,262.4321,0,0,1
97.66267,0.07412672,242.6179,0,0,1
94.94299,0.0741272,222.8036,0,0,1
92.22336,0.07412672,202.9894,0,0,1
89.50372,0.0741272,183.1752,0,0,1
86.78407,0.0741272,163.3609,0,0,1
84.06445,0.0741272,143.5467,0,0,1
161.4763,0.07412767,339.8434,0,0,1
102.6634,2.195,301.2739,1,0,1
154.6772,0.0741272,290.3079,0,0,1
151.2776,0.07412767,265.5401,0,0,1
147.8781,0.0741272,240.7723,0,0,1
144.4785,0.07412767,216.0045,0,0,1
141.079,0.07412672,191.2367,0,0,1
137.6795,0.07412672,166.4689,0,0,1
134.2799,0.0741272,141.7012,0,0,1
130.8804,0.07412672,116.9334,0,0,1
249.7014,0.07412767,369.7912,0,0,1
102.3997,4.172348,301.2083,1,0,1
240.636,0.0741272,303.7439,0,0,1
236.1033,0.07412672,270.7201,0,0,1
231.5706,0.07412672,237.6964,0,0,1
227.0378,0.07412672,204.6727,0,0,1
222.5051,0.0741272,171.649,0,0,1
217.9724,0.0741272,138.6253,0,0,1
213.4396,0.07412767,105.6015,0,0,1
208.9069,0.07412672,72.57785,0,0,1
283.9234,2.760972,381.4078,0,0,1
102.1366,6.144646,301.1427,1,0,1
400.3362,0.3110142,328.7061,0,0,1
263.7,2.865235,272.4054,1,0,1
294.2798,2.158659,235.3917,0,0,1
289.2167,2.152224,196.1382,0,0,1
304.1819,1.735663,152.0009,0,0,1
331.7986,1.044731,99.15302,0,0,1
371.7591,0.0741272,33.40231,0,0,1
364.96,0.0741272,-16.1333,0,0,1
287.726,6.381632,382.6986,0,0,1
101.8743,8.1119,301.0774,1,0,1
541.4485,3.824551,350.7629,0,0,1
263.9981,6.466752,272.4236,1,0,1
350.2598,5.558994,233.3343,0,0,1
371.4658,5.282973,184.849,0,0,1
315.764,5.78636,149.2148,0,0,1
378.34,5.076392,83.01357,0,0,1
416.1339,4.606983,13.16586,0,0,1
406.2882,4.632737,-39.62701,0,0,1
290.9578,10.07413,383.7956,0,0,1
101.6125,10.07413,301.0122,1,0,1
540.373,10.07413,350.5948,0,0,1
264.2968,10.07413,272.4418,1,0,1
354.2619,10.07413,233.1872,0,0,1
378.3823,10.07413,183.8996,0,0,1
462.3533,10.07413,113.9514,0,0,1
445.2805,10.07413,59.80021,0,0,1
421.1646,10.07413,10.87165,0,0,1
410.712,10.07413,-42.14172,0,0,1
294.0738,13.82658,384.8533,0,0,1
101.4233,12.03205,300.9651,1,0,1
539.3954,16.30378,350.442,0,0,1
264.5959,13.68737,272.4601,1,0,1
357.833,14.66467,233.056,0,0,1
480.1897,15.96271,169.9259,0,0,1
468.3103,15.92309,112.5184,0,0,1
449.481,15.81021,58.34356,0,0,1
425.2558,15.6373,9.005934,0,0,1
414.7105,15.60547,-44.41479,0,0,1
297.0581,17.63541,385.8663,0,0,1
101.5434,13.99225,300.995,1,0,1
246.3901,16.85236,304.6432,1,0,1
264.8956,17.30651,272.4784,1,0,1
361.2502,19.32326,232.9304,0,0,1
486.2116,21.97287,169.0993,0,0,1
473.7488,21.88337,111.2101,0,0,1
453.7721,21.63537,56.8555,0,0,1
429.589,21.29171,7.029846,0,0,1
433.4844,21.53782,-55.08722,0,0,1
176.152,17.98999,344.825,1,0,1
101.6637,15.95479,301.025,1,0,1
246.4135,20.24216,304.6469,1,0,1
265.278,20.93397,272.5017,1,0,1
365.4248,24.07252,232.777,0,0,1
489.9015,28.03397,168.5929,0,0,1
459.2315,27.58597,54.96229,0,0,1
458.5966,27.8166,-6.198669,0,0,1
438.3727,27.4263,-57.86591,0,0,1
165.2364,20.21619,341.1198,1,0,1
101.7841,17.9196,301.0549,1,0,1
246.4563,23.63315,304.6536,1,0,1
266.0938,24.58598,272.5515,1,0,1
371.5585,28.98295,232.5515,0,0,1
493.61,34.17033,168.0838,0,0,1
463.6809,33.94485,-8.517151,0,0,1
442.0628,33.36799,-59.96362,0,0,1
103.0493,0.5169678,305.9569,1,0,1
108.6578,0.0741272,288.9434,0,0,1
104.7096,0.0741272,269.337,0,0,1
100.7613,0.0741272,249.7305,0,0,1
96.81312,0.07412672,230.1241,0,0,1
92.86487,0.0741272,210.5177,0,0,1
88.91662,0.0741272,190.9113,0,0,1
84.96841,0.0741272,171.3049,0,0,1
81.02017,0.0741272,151.6984,0,0,1
77.07195,0.0741272,132.092,0,0,1
102.7453,2.439667,305.8745,1,0,1
161.6221,0.07412672,298.6792,0,0,1
156.6868,0.0741272,274.1712,0,0,1
151.7515,0.0741272,249.6631,0,0,1
146.8162,0.0741272,225.1552,0,0,1
141.8809,0.07412767,200.6471,0,0,1
136.9456,0.07412672,176.1391,0,0,1
132.0103,0.0741272,151.6311,0,0,1
127.075,0.0741272,127.1231,0,0,1
122.1398,0.07412672,102.615,0,0,1
102.4422,4.356705,305.7922,1,0,1
166.9696,2.422676,299.6621,1,0,1
243.3155,0.0741272,282.2283,0,0,1
236.7351,0.0741272,249.5509,0,0,1
230.1547,0.0741272,216.8735,0,0,1
223.5743,0.07412672,184.1962,0,0,1
216.9939,0.0741272,151.5188,0,0,1
210.4135,0.0741272,118.8415,0,0,1
203.8331,0.07412672,86.16406,0,0,1
197.2528,0.07412672,53.48672,0,0,1
102.14,6.26812,305.7102,1,0,1
166.9696,4.97316,299.6621,1,0,1
265.1627,2.987136,284.2602,1,0,1
297.4477,2.216787,249.4707,0,0,1
288.7087,2.236453,211.0548,0,0,1
297.3286,1.902764,169.3439,0,0,1
319.3412,1.276511,120.04,0,0,1
367.2199,0.0741272,53.26216,0,0,1
357.3494,0.0741272,4.246116,0,0,1
271.5391,1.759139,4.89917,1,0.92,0.016
101.8387,8.17392,305.6285,1,0,1
171.0934,7.484718,300.4202,1,0,1
265.717,6.525299,284.3117,1,0,1
322.0157,5.904548,249.4382,0,0,1
379.3628,5.248806,202.0462,0,0,1
371.0354,5.236581,154.5013,0,0,1
445.8482,4.358334,81.13053,0,0,1
423.167,4.479477,29.86412,0,0,1
409.886,4.503757,-23.78809,0,0,1
269.7048,5.936982,6.098793,1,0.92,0.016
101.5383,10.07413,305.547,1,0,1
170.7577,10.07413,300.3585,1,0,1
266.273,10.07413,284.3634,1,0,1
348.412,10.07413,249.4033,0,0,1
460.1589,10.07413,194.0173,0,0,1
381.0179,10.07413,152.491,0,0,1
451.9228,10.07413,79.26217,0,0,1
428.685,10.07413,27.55634,0,0,1
413.9769,10.07413,-25.97107,0,0,1
205.3084,10.07387,48.21783,0,1,0
101.3094,11.96944,305.4849,1,0,1
171.8583,12.67076,300.5608,1,0,1
266.8307,13.63367,284.4153,1,0,1
351.4696,14.53253,249.3993,0,0,1
551.2139,16.61785,184.9688,0,0,1
481.7144,16.04068,132.2133,0,0,1
457.1291,15.90736,77.66087,0,0,1
433.1713,15.77511,25.68011,0,0,1
417.1725,15.7236,-27.67627,0,0,1
271.2101,14.22797,5.11431,1,0.92,0.016
101.4472,13.8673,305.5223,1,0,1
237.8493,16.51335,312.6912,1,0,1
267.3901,17.20397,284.4673,1,0,1
354.4915,19.05019,249.3953,0,0,1
487.7736,22.13085,130.9932,0,0,1
462.7156,21.85691,75.94263,0,0,1
451.7334,21.87068,17.9171,0,0,1
419.9895,21.43425,-29.17938,0,0,1
272.4779,18.40995,4.285083,1,0.92,0.016
101.5853,15.76773,305.5598,1,0,1
237.7599,19.73043,312.6747,1,0,1
268.0683,20.78845,284.5304,1,0,1
356.7544,23.60479,249.3923,0,0,1
470.5213,27.99208,73.54186,0,0,1
423.0831,27.21507,-30.8302,0,0,1
270.5355,22.51321,5.555516,1,0.92,0.016
101.7235,17.67069,305.5973,1,0,1
237.6706,22.94582,312.6583,1,0,1
266.2584,24.29027,284.3621,1,0,1
358.9104,28.19958,249.3894,0,0,1
523.8727,36.18636,57.13268,0,0,1
429.8879,33.22422,-34.4613,0,0,1
270.5355,26.65957,5.555509,1,0.92,0.016
116.4364,0.07412767,291.9546,0,0,1
111.0073,0.0741272,272.7056,0,0,1
105.5783,0.07412672,253.4565,0,0,1
100.1492,0.0741272,234.2075,0,0,1
94.72015,0.0741272,214.9584,0,0,1
89.29109,0.0741272,195.7094,0,0,1
83.86202,0.0741272,176.4604,0,0,1
78.43297,0.0741272,157.2113,0,0,1
73.0039,0.0741272,137.9623,0,0,1
67.57484,0.0741272,118.7133,0,0,1
171.3453,0.0741272,302.4432,0,0,1
164.559,0.0741272,278.3819,0,0,1
157.7726,0.07412767,254.3206,0,0,1
150.9863,0.0741272,230.2593,0,0,1
144.2,0.0741272,206.1981,0,0,1
137.4137,0.0741272,182.1367,0,0,1
130.6273,0.07412672,158.0754,0,0,1
123.841,0.07412672,134.0142,0,0,1
117.0547,0.0741272,109.9528,0,0,1
110.2684,0.0741272,85.89156,0,0,1
161.6743,2.838318,300.5959,1,0,1
253.8117,0.07412767,287.8426,0,0,1
244.7633,0.0741272,255.7608,0,0,1
235.7148,0.07412672,223.6791,0,0,1
226.6664,0.07412767,191.5974,0,0,1
217.618,0.0741272,159.5157,0,0,1
208.5695,0.07412672,127.4339,0,0,1
199.5211,0.07412767,95.35222,0,0,1
190.4727,0.0741272,63.27048,0,0,1
181.4242,0.07412767,31.18879,0,0,1
170.6518,5.086754,302.3108,1,0,1
394.8028,0.7746544,302.7874,0,0,1
300.5935,2.337802,256.6852,0,0,1
290.2063,2.335577,219.4472,0,0,1
291.7717,2.091668,180.0705,0,0,1
307.1507,1.546948,134.2636,0,0,1
334.82,0.7078009,77.80091,0,0,1
350.8813,0.0741272,18.02832,0,0,1
277.6278,1.428946,7.853408,1,0.92,0.016
170.7635,3.657164,39.38437,0,1,0
171.4345,7.573318,302.4603,1,0,1
394.2984,5.429098,302.7339,0,0,1
342.5288,5.804242,257.3795,0,0,1
437.8047,4.753173,207.9843,0,0,1
369.5489,5.296949,166.3001,0,0,1
310.8341,5.772267,133.2247,0,0,1
427.6348,4.398619,41.31256,0,0,1
413.011,4.390002,-13.71124,0,0,1
275.205,5.779037,9.393929,1,0.92,0.016
168.3586,6.893812,41.23319,0,1,0
171.1145,10.07413,302.3991,1,0,1
387.0334,10.07413,301.9638,0,0,1
347.4324,10.07413,257.4606,0,0,1
445.5391,10.07413,207.3837,0,0,1
376.5695,10.07413,165.0571,0,0,1
314.1689,10.07413,132.2841,0,0,1
433.0685,10.07413,39.17639,0,0,1
419.1566,10.07413,-16.85077,0,0,1
275.205,10.07413,9.393938,1,0.92,0.016
168.0613,10.07412,41.46178,0,1,0
170.8508,12.56963,302.3488,1,0,1
385.7293,14.63914,301.8256,0,0,1
350.4801,14.42018,257.5111,0,0,1
453.4904,15.54936,206.7661,0,0,1
484.1269,16.00913,146.0141,0,0,1
462.2797,15.94953,90.51048,0,0,1
437.5015,15.85513,37.43365,0,0,1
424.7911,15.88797,-19.72931,0,0,1
277.1284,14.39105,8.170957,1,0.92,0.016
168.8446,13.26013,40.85958,0,1,0
170.5877,15.06033,302.2985,1,0,1
385.4535,19.19901,301.7964,0,0,1
353.2503,18.81931,257.5569,0,0,1
484.4959,21.63448,204.3582,0,0,1
490.8428,22.07986,144.8251,0,0,1
475.1733,22.09286,86.87395,0,0,1
441.9655,21.73159,35.67865,0,0,1
445.9489,22.16775,-30.53784,0,0,1
278.3567,18.73586,7.389976,1,0.92,0.016
170.2448,16.47894,39.78321,0,1,0
173.8077,17.6414,302.9136,1,0,1
385.8501,23.77257,301.8384,0,0,1
355.8581,23.26685,257.6001,0,0,1
491.518,27.62186,203.8128,0,0,1
453.4247,27.92787,31.17374,0,0,1
451.8377,28.4091,-33.54639,0,0,1
276.2104,22.99363,8.754699,1,0.92,0.016
170.3338,19.68448,39.71473,0,1,0
235.6987,22.41813,314.7359,1,0,1
262.0484,23.71509,288.7156,1,0,1
358.2781,27.75716,257.6402,0,0,1
276.3947,27.30851,8.637481,1,0.92,0.016
170.1925,22.88132,39.82334,0,1,0
118.9501,0.07412767,275.4883,0,0,1
112.1032,0.07412767,256.6967,0,0,1
105.2563,0.07412672,237.9053,0,0,1
98.40942,0.0741272,219.1138,0,0,1
91.56248,0.07412672,200.3223,0,0,1
84.71558,0.0741272,181.5308,0,0,1
77.86864,0.0741272,162.7393,0,0,1
71.02174,0.0741272,143.9478,0,0,1
64.17483,0.0741272,125.1564,0,0,1
57.32788,0.0741272,106.3649,0,0,1
174.4875,0.0741272,281.8603,0,0,1
165.9289,0.0741272,258.3709,0,0,1
157.3702,0.0741272,234.8816,0,0,1
148.8116,0.0741272,211.3923,0,0,1
140.2529,0.0741272,187.9029,0,0,1
131.6943,0.0741272,164.4135,0,0,1
123.1356,0.07412767,140.9241,0,0,1
114.577,0.0741272,117.4348,0,0,1
106.0183,0.0741272,93.94542,0,0,1
97.45968,0.0741272,70.45609,0,0,1
267.0498,0.0741272,292.4804,0,0,1
255.6383,0.07412672,261.1613,0,0,1
244.2267,0.07412672,229.8421,0,0,1
232.8152,0.07412767,198.523,0,0,1
221.4037,0.07412672,167.2038,0,0,1
209.9921,0.0741272,135.8847,0,0,1
198.5806,0.07412767,104.5656,0,0,1
187.1691,0.07412767,73.24641,0,0,1
175.7576,0.0741272,41.92725,0,0,1
164.346,0.0741272,10.60812,0,0,1
396.2775,1.080599,307.3073,0,0,1
308.5016,2.425338,262.8055,0,0,1
292.4602,2.48192,227.0436,0,0,1
288.9562,2.293601,189.9222,0,0,1
303.8108,1.71499,146.1843,0,0,1
332.6736,0.7960353,91.18415,0,0,1
349.4705,0.0741272,31.8483,0,0,1
332.3533,0.0741272,-15.13037,0,0,1
167.1023,3.614311,48.38315,0,1,0
298.1187,0.07412744,-109.0878,0,0,1
405.1655,5.497345,308.3271,0,0,1
339.7149,5.959784,263.7764,0,0,1
362.4171,5.606833,222.9846,0,0,1
370.4973,5.374959,177.4302,0,0,1
310.5008,5.825859,144.4779,0,0,1
434.4755,4.351592,54.09129,0,0,1
413.1813,4.370405,1.144677,0,0,1
418.3547,4.086858,-67.48138,0,0,1
166.695,6.849079,48.68689,0,1,0
319.6343,4.806065,-128.3395,0,0,1
388.0927,10.07413,306.3682,0,0,1
344.2719,10.07413,263.9181,0,0,1
375.8405,10.07413,222.2058,0,0,1
376.9014,10.07413,176.4491,0,0,1
462.3146,10.07413,105.7549,0,0,1
440.5585,10.07413,51.87483,0,0,1
419.016,10.07413,-1.667297,0,0,1
423.8702,10.07413,-70.83881,0,0,1
168.1523,10.07412,47.59996,0,1,0
435.6104,10.07413,-232.1116,0,0,1
386.8297,14.48584,306.2233,0,0,1
348.1521,14.26685,264.0388,0,0,1
461.476,15.49183,217.2372,0,0,1
482.5953,15.88533,160.2569,0,0,1
469.2803,15.95289,103.9781,0,0,1
444.9876,15.90854,50.26105,0,0,1
425.0117,15.90852,-4.556641,0,0,1
427.9846,16.17194,-73.34332,0,0,1
169.2299,13.32946,46.79616,0,1,0
442.0152,16.86693,-237.8423,0,0,1
387.009,18.90077,306.2439,0,0,1
351.5396,18.5225,264.1442,0,0,1
478.7064,21.24016,216.2374,0,0,1
487.9056,21.80189,159.4434,0,0,1
477.9949,22.01064,101.7553,0,0,1
450.3708,21.85755,48.29966,0,0,1
431.7935,22.35721,-75.6618,0,0,1
171.3582,16.63565,45.20867,0,1,0
448.0591,23.81033,-243.2502,0,0,1
386.5241,23.30099,306.1882,0,0,1
354.3489,22.82497,264.2316,0,0,1
487.8166,27.0854,215.7089,0,0,1
495.4969,27.8917,158.2804,0,0,1
460.2015,28.06315,44.71769,0,0,1
436.0176,28.64423,-78.23322,0,0,1
173.8496,20.00573,43.35029,0,1,0
386.8158,27.72045,306.2217,0,0,1
357.8831,27.20657,264.3415,0,0,1
512.9027,33.71857,214.2534,0,0,1
177.1679,23.47487,40.87523,0,1,0
120.3093,0.07412767,256.6272,0,0,1
111.8992,0.0741272,238.4814,0,0,1
103.489,0.0741272,220.3356,0,0,1
95.07882,0.0741272,202.1898,0,0,1
86.66864,0.0741272,184.0441,0,0,1
78.25849,0.07412767,165.8983,0,0,1
69.84831,0.0741272,147.7525,0,0,1
61.43814,0.0741272,129.6067,0,0,1
53.02796,0.07412672,111.461,0,0,1
44.61779,0.07412744,93.31518,0,0,1
176.1865,0.07412672,258.2839,0,0,1
165.6738,0.07412672,235.6017,0,0,1
155.1611,0.07412767,212.9195,0,0,1
144.6484,0.07412767,190.2373,0,0,1
134.1356,0.0741272,167.5551,0,0,1
123.6229,0.0741272,144.8728,0,0,1
113.1102,0.0741272,122.1906,0,0,1
102.5975,0.07412672,99.50842,0,0,1
92.08477,0.0741272,76.8262,0,0,1
81.57206,0.07412767,54.14394,0,0,1
269.3151,0.0741272,261.0453,0,0,1
255.2981,0.0741272,230.8023,0,0,1
241.2812,0.0741272,200.5593,0,0,1
227.2642,0.0741272,170.3164,0,0,1
213.2473,0.0741272,140.0734,0,0,1
199.2303,0.07412672,109.8305,0,0,1
185.2134,0.0741272,79.58749,0,0,1
168.4134,0.1755466,51.37958,0,1,0
157.1794,0.0741272,19.10158,0,0,1
143.1625,0.0741272,-11.14136,0,0,1
309.0247,2.6968,262.2227,0,0,1
293.1332,2.703873,228.7762,0,0,1
289.3438,2.477313,193.6613,0,0,1
304.3219,1.852924,151.7357,0,0,1
331.5706,0.9147105,98.9705,0,0,1
350.4452,0.0741272,39.74567,0,0,1
329.4197,0.0741272,-5.618713,0,0,1
170.1305,3.433346,50.12395,0,1,0
287.3688,0.0741272,-96.34766,0,0,1
266.3434,0.07412744,-141.712,0,0,1
340.1967,6.106531,263.1469,0,0,1
358.4846,5.781359,225.2766,0,0,1
370.9633,5.485936,181.9471,0,0,1
315.8423,5.847321,148.9578,0,0,1
378.2198,5.003033,82.76558,0,0,1
414.7617,4.36524,9.936317,0,0,1
411.5743,4.124623,-54.16101,0,0,1
169.6684,6.759354,50.46183,0,1,0
322.1388,4.629006,-127.1808,0,0,1
352.5597,3.9076,-233.1006,0,0,1
344.6864,10.07413,263.2801,0,0,1
366.5305,10.07413,224.8458,0,0,1
377.9354,10.07413,180.9464,0,0,1
462.1906,10.07413,113.6693,0,0,1
445.1272,10.07413,59.5234,0,0,1
420.015,10.07413,7.501573,0,0,1
431.0433,10.07413,-65.66449,0,0,1
169.9199,10.07412,50.27795,0,1,0
441.3613,10.07413,-232.9051,0,0,1
357.8701,10.07413,-238.7297,0,0,1
348.3107,14.11433,263.3875,0,0,1
377.1366,14.54032,224.2778,0,0,1
480.2946,15.72025,166.2556,0,0,1
468.2165,15.83791,112.2163,0,0,1
449.3854,15.89485,58.04422,0,0,1
424.1919,15.88695,5.565629,0,0,1
435.5746,16.30102,-68.34198,0,0,1
170.8921,13.40376,49.56704,0,1,0
447.4687,17.1237,-238.3208,0,0,1
363.7613,16.39222,-244.9742,0,0,1
351.601,18.21342,263.4851,0,0,1
480.6979,20.93236,218.7321,0,0,1
485.8434,21.47376,165.4592,0,0,1
473.6472,21.71125,110.9068,0,0,1
453.8492,21.80962,56.49358,0,0,1
429.0251,21.80632,3.325567,0,0,1
439.8095,22.62579,-70.84412,0,0,1
173.4527,16.79562,47.69452,0,1,0
453.5257,24.32836,-243.6921,0,0,1
354.0689,22.34931,263.5582,0,0,1
489.6731,26.61183,218.2514,0,0,1
490.2182,27.30058,164.8313,0,0,1
459.6328,27.86013,54.48449,0,0,1
459.7062,28.68691,-10.89459,0,0,1
192.3602,20.84541,33.86813,0,1,0
357.3672,26.55909,263.656,0,0,1
512.7067,32.98107,217.018,0,0,1
464.6161,35.10763,-13.1701,0,0,1
430.5319,36.00899,-140.2979,0,0,1
120.228,0.07412767,241.0397,0,0,1
110.5741,0.0741272,223.5239,0,0,1
100.9202,0.0741272,206.0081,0,0,1
91.26626,0.07412672,188.4924,0,0,1
81.61234,0.07412767,170.9766,0,0,1
71.95844,0.0741272,153.4608,0,0,1
62.30451,0.0741272,135.9451,0,0,1
52.6506,0.07412672,118.4293,0,0,1
42.99665,0.0741272,100.9135,0,0,1
33.34276,0.07412744,83.39777,0,0,1
176.0849,0.07412672,238.7996,0,0,1
164.0174,0.0741272,216.9049,0,0,1
151.95,0.0741272,195.0102,0,0,1
139.8826,0.07412672,173.1155,0,0,1
127.8152,0.0741272,151.2207,0,0,1
115.7478,0.0741272,129.326,0,0,1
103.6804,0.0741272,107.4314,0,0,1
91.61303,0.0741272,85.53665,0,0,1
79.54566,0.0741272,63.64192,0,0,1
67.47827,0.0741272,41.7472,0,0,1
269.1795,0.0741272,235.0661,0,0,1
253.0897,0.0741272,205.8732,0,0,1
236.9998,0.07412767,176.6802,0,0,1
220.9099,0.0741272,147.4873,0,0,1
204.8201,0.07412767,118.2943,0,0,1
188.7302,0.0741272,89.10139,0,0,1
172.6404,0.0741272,59.90845,0,0,1
156.5505,0.07412672,30.71551,0,0,1
140.4606,0.07412672,1.522541,0,0,1
124.3708,0.0741272,-27.67041,0,0,1
295.6932,2.932786,234.0028,0,0,1
288.5383,2.744166,201.4828,0,0,1
304.8409,2.078021,162.0591,0,0,1
335.8023,1.044216,111.1479,0,0,1
358.8297,0.0741272,52.44148,0,0,1
334.6949,0.07412767,8.652076,0,0,1
310.5602,0.0741272,-35.13727,0,0,1
286.4254,0.07412744,-78.92682,0,0,1
262.2905,0.0741272,-122.7161,0,0,1
152.1505,2.593652,-61.56606,1,0,0
351.8824,6.000482,231.7494,0,0,1
374.2352,5.607392,190.8692,0,0,1
374.2227,5.396258,147.1059,0,0,1
383.6997,5.066566,95.99839,0,0,1
421.3325,4.397734,25.71602,0,0,1
406.8815,4.249881,-31.13391,0,0,1
268.9668,5.576754,-6.473733,1,0.92,0.016
375.5868,3.929932,-154.1981,0,0,1
361.9055,3.711367,-224.3007,0,0,1
152.1506,6.333891,-61.56606,1,0,0
355.4676,10.07413,231.6056,0,0,1
382.2735,10.07413,189.8736,0,0,1
472.8393,10.07413,125.8521,0,0,1
450.5761,10.07413,74.846,0,0,1
426.9374,10.07413,23.31936,0,0,1
411.0242,10.07413,-33.41724,0,0,1
268.9668,10.07413,-6.4738,1,0.92,0.016
477.366,10.07413,-240.1215,0,0,1
367.1823,10.07413,-229.6818,0,0,1
152.1506,10.07413,-61.56606,1,0,0
358.9561,14.21109,231.4657,0,0,1
479.7857,15.52836,177.7966,0,0,1
479.2913,15.78148,124.4615,0,0,1
455.2484,15.81754,73.36819,0,0,1
431.8815,15.86468,21.20537,0,0,1
414.1455,15.98132,-35.13751,0,0,1
421.9977,16.42077,-111.9331,0,0,1
486.706,17.6443,-248.0065,0,0,1
372.9327,16.58774,-235.5459,0,0,1
152.1506,13.81437,-61.56606,1,0,0
362.6274,18.41378,231.3185,0,0,1
488.4892,21.14545,176.7186,0,0,1
485.6052,21.61256,123.1008,0,0,1
459.8391,21.65538,71.91621,0,0,1
467.9424,22.43573,5.786076,0,0,1
416.8165,21.9495,-36.60974,0,0,1
424.2502,22.82186,-113.4854,0,0,1
492.9128,25.37378,-253.2465,0,0,1
405.4781,23.99182,-268.7348,0,0,1
152.1505,17.5546,-61.56606,1,0,0
367.1851,22.70601,231.1357,0,0,1
547.1387,28.32724,169.4548,0,0,1
464.9766,27.60451,70.29127,0,0,1
419.3826,27.97509,-38.02399,0,0,1
270.4442,23.61981,-7.4919,1,0.92,0.016
408.6485,31.08078,-271.968,0,0,1
152.1506,21.29484,-61.56606,1,0,0
377.4001,27.28239,230.726,0,0,1
553.249,34.64027,168.6981,0,0,1
422.077,34.06514,-39.50897,0,0,1
427.8049,35.74142,-115.9352,0,0,1
411.4984,38.23895,-274.8741,0,0,1
152.1506,25.03508,-61.56606,1,0,0
119.2282,0.0741272,227.0648,0,0,1
108.4963,0.07412767,210.188,0,0,1
97.76436,0.0741272,193.3112,0,0,1
87.03245,0.0741272,176.4345,0,0,1
76.30052,0.0741272,159.5576,0,0,1
65.56861,0.07412767,142.6809,0,0,1
54.8367,0.07412672,125.8041,0,0,1
44.1048,0.0741272,108.9273,0,0,1
33.37289,0.0741272,92.05048,0,0,1
22.64097,0.07412744,75.17371,0,0,1
174.8351,0.0741272,221.331,0,0,1
161.4202,0.0741272,200.235,0,0,1
148.0053,0.07412672,179.1391,0,0,1
134.5904,0.0741272,158.0431,0,0,1
121.1755,0.07412672,136.9471,0,0,1
107.7606,0.0741272,115.8511,0,0,1
94.34571,0.0741272,94.75509,0,0,1
80.93081,0.07412672,73.6591,0,0,1
67.51591,0.0741272,52.5631,0,0,1
54.10103,0.0741272,31.46712,0,0,1
267.5132,0.07412672,211.7747,0,0,1
249.6266,0.0741272,183.6467,0,0,1
231.7401,0.0741272,155.5187,0,0,1
213.8536,0.07412767,127.3907,0,0,1
195.9671,0.0741272,99.26276,0,0,1
178.0806,0.07412672,71.13477,0,0,1
160.194,0.07412672,43.00678,0,0,1
142.3075,0.07412767,14.87881,0,0,1
124.421,0.0741272,-13.24921,0,0,1
106.5345,0.07412696,-41.37714,0,0,1
290.9388,2.986188,209.3592,0,0,1
295.0951,2.548332,175.0958,0,0,1
307.2743,1.90402,134.2117,0,0,1
333.9598,0.8819876,80.94378,0,0,1
345.5503,0.0741272,23.8941,0,0,1
277.8453,1.042917,7.69453,1,0.92,0.016
291.8907,0.0741272,-60.48987,0,0,1
265.0609,0.0741272,-102.6818,0,0,1
163.0045,2.277405,-57.87216,1,0,0
124.3594,2.84087,-66.14079,1,0,0
380.3279,5.726398,200.142,0,0,1
370.4751,5.599074,160.9196,0,0,1
310.9637,5.952356,133.171,0,0,1
429.0562,4.478262,44.16852,0,0,1
413.144,4.320993,-10.16339,0,0,1
275.1856,5.590041,9.38589,1,0.92,0.016
165.968,6.667715,38.46912,0,1,0
384.3231,3.454862,-216.8989,0,0,1
163.0924,6.174484,-57.97374,1,0,0
122.7414,6.483215,-63.89299,1,0,0
470.4234,10.07413,190.852,0,0,1
377.6971,10.07413,159.5614,0,0,1
314.1953,10.07413,132.2594,0,0,1
434.4419,10.07413,42.08583,0,0,1
419.8477,10.07413,-13.5412,0,0,1
275.1856,10.07413,9.385877,1,0.92,0.016
507.1924,10.07413,-229.6893,0,0,1
392.4258,10.07413,-224.6588,0,0,1
162.3292,10.07412,-57.09119,1,0,0
121.5717,10.07413,-62.26793,1,0,0
543.2321,15.88664,183.3444,0,0,1
481.2115,15.59537,140.0943,0,0,1
462.0408,15.69942,90.55444,0,0,1
438.6634,15.771,40.45329,0,0,1
446.5635,16.19963,-27.00214,0,0,1
277.2281,14.58242,8.087055,1,0.92,0.016
514.7134,17.89403,-235.5999,0,0,1
399.4251,16.89844,-231.3621,0,0,1
160.2172,13.93168,-54.64846,1,0,0
121.7313,13.64885,-62.48977,1,0,0
555.0802,21.91222,182.1227,0,0,1
486.4325,21.21526,139.1124,0,0,1
472.8838,21.54054,87.49579,0,0,1
442.5606,21.54981,38.9462,0,0,1
453.0228,22.46906,-30.25677,0,0,1
278.1012,19.11141,7.531787,1,0.92,0.016
535.1479,26.23114,-251.6588,0,0,1
408.7416,23.97573,-240.2844,0,0,1
160.5947,17.80027,-55.08509,1,0,0
121.7314,17.22382,-62.48974,1,0,0
494.2363,27.007,137.6448,0,0,1
453.2596,27.62511,34.80872,0,0,1
276.1909,23.56212,8.746616,1,0.92,0.016
171.1478,20.48998,34.39853,0,1,0
421.5115,31.44669,-252.514,0,0,1
159.9137,21.63341,-54.29758,1,0,0
121.7313,20.79871,-62.48976,1,0,0
276.9681,28.09497,8.252368,1,0.92,0.016
169.8125,23.89435,35.44786,0,1,0
424.9232,38.75616,-255.7815,0,0,1
157.3833,25.3383,-51.3711,1,0,0
119.5338,24.23386,-59.43675,1,0,0
116.9915,0.07412767,211.0633,0,0,1
105.0689,0.07412767,195.0055,0,0,1
93.14633,0.0741272,178.9478,0,0,1
81.22377,0.0741272,162.8899,0,0,1
69.30122,0.07412672,146.8321,0,0,1
57.37864,0.07412767,130.7744,0,0,1
45.45607,0.0741272,114.7166,0,0,1
33.53351,0.0741272,98.65876,0,0,1
21.61094,0.0741272,82.60098,0,0,1
9.688385,0.0741272,66.54319,0,0,1
172.0392,0.0741272,201.3291,0,0,1
157.136,0.0741272,181.2569,0,0,1
142.2328,0.0741272,161.1847,0,0,1
127.3295,0.0741272,141.1124,0,0,1
112.4263,0.0741272,121.0402,0,0,1
97.52311,0.0741272,100.968,0,0,1
82.6199,0.0741272,80.8957,0,0,1
67.71671,0.0741272,60.82346,0,0,1
52.81348,0.0741272,40.75123,0,0,1
37.91029,0.0741272,20.67897,0,0,1
263.7853,0.0741272,185.1055,0,0,1
243.9143,0.07412672,158.3425,0,0,1
224.0434,0.07412767,131.5796,0,0,1
204.1725,0.0741272,104.8166,0,0,1
184.3015,0.0741272,78.05355,0,0,1
164.4306,0.0741272,51.29059,0,0,1
144.5596,0.0741272,24.52764,0,0,1
124.6887,0.07412714,-2.235413,0,0,1
104.8177,0.0741272,-28.99835,0,0,1
84.94682,0.0741272,-55.76135,0,0,1
293.5915,2.865998,179.8348,0,0,1
304.1938,2.249732,142.4254,0,0,1
333.1971,1.183754,92.07974,0,0,1
357.8583,0.0741272,32.22482,0,0,1
328.0518,0.07412726,-7.919678,0,0,1
167.3339,3.335133,49.13486,0,1,0
268.4391,0.0741272,-88.20868,0,0,1
167.5331,2.154087,-49.65718,1,0,0
129.9682,2.601421,-62.73087,1,0,0
105.9138,2.664528,-89.8353,1,0,0
370.2593,5.773686,166.2775,0,0,1
309.1589,6.11425,141.1143,0,0,1
435.5027,4.586844,55.05808,0,0,1
413.9149,4.466214,5.747154,0,0,1
422.1375,3.983282,-64.1897,0,0,1
166.9142,6.70985,49.44646,0,1,0
313.6061,4.466452,-129.3127,0,0,1
345.8722,3.505527,-247.05,0,0,1
128.2471,6.365354,-60.42258,1,0,0
103.7382,6.407877,-86.29984,1,0,0
376.5587,10.07413,165.1636,0,0,1
318.0907,10.07413,138.7558,0,0,1
441.2743,10.07413,52.96946,0,0,1
419.1675,10.07413,3.266156,0,0,1
428.8077,10.07413,-68.17896,0,0,1
168.556,10.07412,48.22749,0,1,0
422.6022,10.07413,-228.5043,0,0,1
179.4601,10.07415,-62.85856,1,0,0
127.2145,10.07413,-59.03761,1,0,0
102.3523,10.07413,-84.04755,1,0,0
382.461,14.4854,164.1198,0,0,1
468.7946,15.56699,98.9615,0,0,1
445.5777,15.66404,51.41219,0,0,1
423.6514,15.78763,1.148239,0,0,1
433.1254,16.29237,-70.76123,0,0,1
169.5359,13.47105,47.49997,0,1,0
432.1576,17.27679,-237.2002,0,0,1
172.1886,14.10225,-54.81023,1,0,0
128.3259,13.78417,-60.52819,1,0,0
101.405,13.69904,-82.50793,1,0,0
489.3885,20.83912,145.2117,0,0,1
450.7159,21.35862,49.55278,0,0,1
456.3389,22.2101,-14.29138,0,0,1
437.3076,22.60759,-73.26257,0,0,1
171.7742,16.92372,45.83804,0,1,0
440.2814,24.69804,-244.5934,0,0,1
171.8799,18.12133,-54.46846,1,0,0
127.6448,17.47237,-59.61472,1,0,0
100.8506,17.30432,-81.60712,1,0,0
497.4259,26.44062,143.7904,0,0,1
458.9492,27.25246,46.57337,0,0,1
463.5318,28.5121,-17.68878,0,0,1
175.2366,20.4779,43.26731,0,1,0
171.289,22.11901,-53.81449,1,0,0
124.2275,21.00721,-55.03128,1,0,0
100.5363,20.90271,-81.09619,1,0,0
187.3883,24.55128,34.24482,0,1,0
171.4656,26.14429,-54.00991,1,0,0
124.9891,24.7004,-56.05276,1,0,0
100.4485,24.50602,-80.95367,1,0,0
114.2201,0.0741272,197.7621,0,0,1
101.3443,0.0741272,182.4581,0,0,1
88.46853,0.0741272,167.154,0,0,1
75.59271,0.0741272,151.85,0,0,1
62.71692,0.0741272,136.5459,0,0,1
49.8411,0.0741272,121.2419,0,0,1
36.96529,0.0741272,105.9378,0,0,1
24.08948,0.0741272,90.63383,0,0,1
11.21367,0.0741272,75.3298,0,0,1
-1.662048,0.0741272,60.02574,0,0,1
168.575,0.07412672,184.7026,0,0,1
152.4803,0.0741272,165.5726,0,0,1
136.3855,0.0741272,146.4425,0,0,1
120.2907,0.07412672,127.3125,0,0,1
104.196,0.0741272,108.1824,0,0,1
88.10118,0.0741272,89.05239,0,0,1
72.00645,0.0741272,69.92232,0,0,1
55.91169,0.0741272,50.79227,0,0,1
39.81689,0.0741272,31.66225,0,0,1
23.72215,0.0741272,12.5322,0,0,1
259.1664,0.0741272,162.9368,0,0,1
237.7067,0.0741272,137.4301,0,0,1
216.2471,0.0741272,111.9234,0,0,1
194.7874,0.0741272,86.41664,0,0,1
173.3277,0.07412767,60.90994,0,0,1
151.868,0.07412672,35.40313,0,0,1
130.4083,0.07412672,9.896427,0,0,1
108.9487,0.07412708,-15.61035,0,0,1
87.48895,0.0741272,-41.117,0,0,1
66.02929,0.0741272,-66.62378,0,0,1
305.778,2.549918,151.7378,0,0,1
337.03,1.465121,104.6327,0,0,1
375.9702,0.0741272,42.88506,0,0,1
343.7807,0.07412672,4.624963,0,0,1
271.7231,1.03529,-6.373203,1,0.92,0.016
279.4016,0.07412744,-71.8952,0,0,1
247.2121,0.0741272,-110.1553,0,0,1
144.9095,2.277405,-60.63346,1,0,0
111.9844,2.551075,-78.51331,1,0,0
150.6436,0.0741272,-224.9356,0,0,1
320.9677,6.172296,148.0882,0,0,1
379.7146,5.35226,90.5379,0,0,1
420.6843,4.607548,23.55796,0,0,1
407.2519,4.364126,-30.21838,0,0,1
267.8195,5.601763,-3.703921,1,0.92,0.016
375.9278,3.81268,-153.106,0,0,1
359.2229,3.475853,-225.2807,0,0,1
145.6544,6.164069,-61.56606,1,0,0
110.2478,6.342957,-75.86226,1,0,0
178.1935,4.531469,-276.4811,0,0,1
462.4379,10.07413,114.0981,0,0,1
448.8602,10.07413,67.70545,0,0,1
426.0244,10.07413,21.24977,0,0,1
411.2555,10.07413,-32.4162,0,0,1
267.8195,10.07413,-3.703945,1,0.92,0.016
480.7083,10.07413,-241.2614,0,0,1
364.8701,10.07413,-231.0851,0,0,1
145.6544,10.07413,-61.56606,1,0,0
108.9284,10.07413,-73.8479,1,0,0
180.8901,10.07413,-281.5264,0,0,1
467.8023,15.32666,112.8093,0,0,1
452.7663,15.51028,66.41563,0,0,1
430.9035,15.64734,19.14087,0,0,1
414.3254,15.86325,-34.1015,0,0,1
270.8121,14.58257,-5.750218,1,0.92,0.016
487.6941,17.79619,-247.1388,0,0,1
370.7048,16.83624,-237.0819,0,0,1
138.2381,13.86765,-52.28088,1,0,0
107.9247,13.76469,-72.31564,1,0,0
183.3623,15.71859,-286.1517,0,0,1
472.6279,20.66798,111.6499,0,0,1
456.1914,21.01342,65.28467,0,0,1
462.5776,21.88157,5.45013,0,0,1
416.9553,21.71122,-35.54517,0,0,1
272.0818,19.12161,-6.61852,1,0.92,0.016
493.2369,25.66312,-251.8021,0,0,1
406.643,24.62395,-274.0195,0,0,1
137.5509,17.63962,-51.42048,1,0,0
107.3354,17.43465,-71.41589,1,0,0
187.1037,21.51046,-293.152,0,0,1
459.739,26.58713,64.11323,0,0,1
419.3974,27.61172,-36.88574,0,0,1
269.2923,23.54449,-4.711033,1,0.92,0.016
152.2802,20.09029,35.05633,0,1,0
410.5246,32.06502,-278.0091,0,0,1
137.1255,21.4023,-50.8878,1,0,0
107.0003,21.09733,-70.90431,1,0,0
464.6444,32.28333,62.49344,0,0,1
421.8633,33.56791,-38.23944,0,0,1
270.4247,28.0892,-5.485349,1,0.92,0.016
137.6197,25.20942,-51.5066,1,0,0
106.9165,24.76588,-70.77636,1,0,0
109.9515,0.0741272,182.422,0,0,1
96.01917,0.07412767,168.0731,0,0,1
82.08691,0.0741272,153.7242,0,0,1
68.15462,0.0741272,139.3752,0,0,1
54.22235,0.0741272,125.0263,0,0,1
40.2901,0.0741272,110.6773,0,0,1
26.35784,0.0741272,96.3284,0,0,1
12.42556,0.0741272,81.97947,0,0,1
-1.506653,0.0741272,67.6305,0,0,1
-15.43896,0.0741272,53.28155,0,0,1
163.2392,0.0741272,165.5275,0,0,1
145.8238,0.0741272,147.5914,0,0,1
128.4084,0.0741272,129.6552,0,0,1
110.9931,0.0741272,111.719,0,0,1
93.57777,0.07412672,93.78285,0,0,1
76.16241,0.0741272,75.84669,0,0,1
58.7471,0.0741272,57.91049,0,0,1
41.33176,0.0741272,39.97432,0,0,1
23.91642,0.0741272,22.03817,0,0,1
6.501096,0.07412732,4.101999,0,0,1
252.0519,0.0741272,137.37,0,0,1
228.8314,0.0741272,113.4552,0,0,1
205.611,0.0741272,89.54023,0,0,1
182.3905,0.07412767,65.62534,0,0,1
159.1701,0.0741272,41.71046,0,0,1
135.9497,0.0741272,17.79555,0,0,1
112.7292,0.07412714,-6.119446,0,0,1
89.50877,0.0741272,-30.03424,0,0,1
66.28832,0.0741272,-53.9491,0,0,1
43.06787,0.0741272,-77.86395,0,0,1
340.9246,1.739668,109.1936,0,0,1
394.8468,0.0741272,45.18269,0,0,1
360.0161,0.0741272,9.310365,0,0,1
274.2253,1.263715,6.337468,1,0.92,0.016
290.3548,0.0741272,-62.43433,0,0,1
255.5241,0.07412744,-98.30664,0,0,1
149.3309,2.277405,-49.53373,1,0,0
117.6148,2.43514,-70.87654,1,0,0
151.0321,0.07412767,-205.9237,0,0,1
116.2015,0.0741272,-241.796,0,0,1
384.2262,5.500599,95.46508,0,0,1
424.7749,4.773672,32.87503,0,0,1
412.3455,4.509277,-17.88031,0,0,1
271.7243,5.698112,7.952156,1,0.92,0.016
166.4763,6.647966,35.91013,0,1,0
378.8916,3.354592,-218.0918,0,0,1
159.4751,6.01917,-61.56606,1,0,0
115.9382,6.283637,-68.44027,1,0,0
103.414,6.010639,-120.5281,1,0,0
132.6354,4.699609,-278.6334,0,0,1
450.4863,10.07413,74.45776,0,0,1
429.8635,10.07413,30.78237,0,0,1
417.3448,10.07413,-20.47803,0,0,1
271.7243,10.07413,7.952159,1,0.92,0.016
501.8843,10.07413,-230.3632,0,0,1
386.7956,10.07413,-225.7662,0,0,1
159.4751,10.07413,-61.56606,1,0,0
114.5833,10.07413,-66.47139,1,0,0
99.62925,10.07413,-113.7408,1,0,0
135.0338,10.07413,-284.0096,0,0,1
454.7309,15.3092,73.11202,0,0,1
434.1579,15.46878,29.01636,0,0,1
421.3909,15.73661,-22.58032,0,0,1
273.6806,14.47298,6.689197,1,0.92,0.016
506.7388,17.82323,-234.2172,0,0,1
393.4077,16.99599,-232.1863,0,0,1
159.4751,14.12909,-61.56606,1,0,0
115.9895,13.86551,-68.51487,1,0,0
96.91051,14.00971,-108.8652,1,0,0
136.6881,15.54101,-287.7178,0,0,1
458.7868,20.6204,71.82613,0,0,1
438.6943,20.95452,27.15079,0,0,1
431.9327,21.62668,-28.05798,0,0,1
274.7468,18.89672,6.000788,1,0.92,0.016
513.2169,25.73694,-239.36,0,0,1
402.8936,24.18229,-241.3967,0,0,1
159.4751,18.18405,-61.56606,1,0,0
112.4857,17.53566,-63.42315,1,0,0
95.48151,17.88909,-106.3025,1,0,0
138.0039,21.06785,-290.6671,0,0,1
463.2489,26.01913,70.41145,0,0,1
442.3738,27.74106,-33.48315,0,0,1
272.7203,23.23705,7.309076,1,0.92,0.016
416.5581,31.80775,-254.6646,0,0,1
159.1921,22.2259,-61.23035,1,0,0
112.8244,21.28402,-63.91545,1,0,0
94.91753,21.76329,-105.2911,1,0,0
139.2174,26.64768,-293.3871,0,0,1
468.9883,31.54954,68.59188,0,0,1
447.2794,33.84185,-36.03223,0,0,1
273.1543,27.64495,7.028911,1,0.92,0.016
169.7542,23.94576,33.30774,0,1,0
419.6046,39.22215,-257.6226,0,0,1
154.4651,25.9846,-55.62348,1,0,0
112.7591,25.01614,-63.82061,1,0,0
95.13602,25.67687,-105.6829,1,0,0
140.4746,32.2868,-296.2052,0,0,1
105.0228,0.07412767,168.4919,0,0,1
90.17327,0.0741272,155.0944,0,0,1
75.32374,0.0741272,141.697,0,0,1
60.47421,0.0741272,128.2995,0,0,1
45.62466,0.0741272,114.9021,0,0,1
30.77513,0.0741272,101.5046,0,0,1
15.92559,0.0741272,88.10719,0,0,1
1.07605,0.0741272,74.70974,0,0,1
-13.77344,0.0741272,61.31233,0,0,1
-28.62299,0.0741272,47.91486,0,0,1
157.0783,0.0741272,148.1148,0,0,1
138.5164,0.0741272,131.368,0,0,1
119.9545,0.0741272,114.6212,0,0,1
101.3926,0.0741272,97.87441,0,0,1
82.83064,0.0741272,81.12759,0,0,1
64.26872,0.0741272,64.38081,0,0,1
45.70681,0.0741272,47.634,0,0,1
27.14487,0.07412696,30.88717,0,0,1
8.582964,0.0741272,14.1404,0,0,1
-9.978882,0.07412714,-2.606323,0,0,1
243.8375,0.0741272,114.1531,0,0,1
219.0883,0.0741272,91.82402,0,0,1
194.3391,0.07412767,69.49493,0,0,1
169.5898,0.0741272,47.16587,0,0,1
144.8406,0.0741272,24.83678,0,0,1
120.0914,0.07412672,2.507716,0,0,1
95.34216,0.07412708,-19.82141,0,0,1
70.59293,0.0741272,-42.15051,0,0,1
45.8437,0.0741272,-64.47943,0,0,1
21.09448,0.0741272,-86.80847,0,0,1
343.4118,1.494613,75.17491,0,0,1
380.2321,0.0741272,12.73602,0,0,1
343.1083,0.0741272,-20.75769,0,0,1
167.2554,3.464508,48.90162,0,1,0
268.8606,0.0741272,-87.74487,0,0,1
165.0971,2.063759,-47.37592,1,0,0
128.0337,2.30974,-64.24973,1,0,0
104.3898,2.111011,-98.96404,1,0,0
120.3652,0.0741272,-221.7192,0,0,1
-13.73734,5.275713,7.577977,1,0.92,0.016
428.6232,4.965904,41.81907,0,0,1
413.5499,4.72953,-3.616089,0,0,1
419.4509,4.218858,-67.07184,0,0,1
166.8425,6.774353,49.20862,0,1,0
314.1465,4.465544,-128.8541,0,0,1
185.1581,5.769464,-69.61134,1,0,0
126.2477,6.221918,-61.82259,1,0,0
102.1409,6.135705,-95.18356,1,0,0
148.4237,4.446603,-280.9222,0,0,1
-13.76482,7.675657,7.652431,1,0.92,0.016
433.4163,10.07413,39.94286,0,0,1
419.5194,10.07413,-6.545837,0,0,1
424.9149,10.07413,-70.38666,0,0,1
168.4285,10.07412,48.02932,0,1,0
424.7331,10.07413,-229.2413,0,0,1
178.6444,10.07415,-62.39162,1,0,0
125.0924,10.07413,-60.25244,1,0,0
100.3915,10.07413,-92.24277,1,0,0
150.8315,10.07413,-286.0029,0,0,1
-13.76481,10.07413,7.652429,1,0.92,0.016
437.3852,15.26651,38.38919,0,0,1
426.7887,15.55565,-10.11359,0,0,1
428.937,16.03567,-72.82666,0,0,1
169.4288,13.4055,47.28551,0,1,0
433.7299,17.28976,-237.4084,0,0,1
171.283,14.17163,-54.23233,1,0,0
126.2356,13.92614,-61.806,1,0,0
99.07558,13.95376,-90.0307,1,0,0
152.6456,15.79608,-289.8306,0,0,1
-12.69375,12.50132,4.750082,1,0.92,0.016
441.108,20.53041,36.93189,0,0,1
432.7046,22.08163,-75.1123,0,0,1
171.5437,16.78854,45.71303,0,1,0
441.5086,24.71446,-244.4697,0,0,1
171.219,18.26726,-54.16141,1,0,0
125.598,17.75673,-60.93963,1,0,0
98.357,17.80582,-88.82275,1,0,0
154.4398,21.59828,-293.6163,0,0,1
99.07452,20.92336,-298.1172,0,0,1
448.6828,25.97682,33.96677,0,0,1
437.0402,28.2311,-77.74255,0,0,1
174.7226,20.26228,43.34931,0,1,0
170.8127,22.34566,-53.71103,1,0,0
122.1513,21.42443,-56.25547,1,0,0
98.04202,21.65355,-88.29326,1,0,0
157.0915,27.53827,-299.2114,0,0,1
178.6119,23.84841,40.45742,0,1,0
171.025,26.44885,-53.94635,1,0,0
122.9892,25.26414,-57.39404,1,0,0
98.07568,25.51594,-88.34983,1,0,0
97.60392,0.0741272,151.6226,0,0,1
81.7016,0.0741272,139.4935,0,0,1
65.79926,0.0741272,127.3643,0,0,1
49.89696,0.0741272,115.2352,0,0,1
33.99463,0.0741272,103.106,0,0,1
18.09232,0.0741272,90.97682,0,0,1
2.189992,0.0741272,78.84766,0,0,1
-13.71222,0.0741272,66.71849,0,0,1
-29.61456,0.0741272,54.58933,0,0,1
-45.51691,0.0741272,42.46021,0,0,1
147.8047,0.07412672,127.0283,0,0,1
127.9268,0.07412672,111.8668,0,0,1
108.0489,0.0741272,96.70539,0,0,1
88.171,0.0741272,81.54395,0,0,1
68.2931,0.0741272,66.38251,0,0,1
48.41521,0.0741272,51.22107,0,0,1
28.5373,0.07412744,36.05961,0,0,1
8.659416,0.0741272,20.89815,0,0,1
-11.21844,0.0741272,5.736664,0,0,1
-31.09631,0.0741272,-9.424805,0,0,1
231.4727,0.0741272,86.03772,0,0,1
204.9688,0.0741272,65.82248,0,0,1
168.8115,0.4168091,52.61229,0,1,0
151.9611,0.07412672,25.39192,0,0,1
125.4572,0.0741272,5.176678,0,0,1
98.95339,0.0741272,-15.0387,0,0,1
72.44951,0.07412732,-35.25385,0,0,1
45.94566,0.0741272,-55.46912,0,0,1
19.4418,0.0741272,-75.68451,0,0,1
-7.062012,0.0741272,-95.89978,0,0,1
398.8087,0.0741272,4.056558,0,0,1
359.053,0.0741272,-26.26636,0,0,1
170.7026,3.591181,51.24007,0,1,0
279.5413,0.0741272,-86.91211,0,0,1
239.7855,0.07412744,-117.2349,0,0,1
133.2199,2.277405,-59.96483,1,0,0
106.1771,2.127343,-90.0275,1,0,0
120.5181,0.0741272,-208.2037,0,0,1
80.76234,0.0741272,-238.5266,0,0,1
41.00652,0.0741272,-268.8495,0,0,1
413.7938,4.924876,-3.284973,0,0,1
422.9155,4.383351,-64.43402,0,0,1
170.4138,6.836071,51.44962,0,1,0
323.8696,4.495037,-125.9327,0,0,1
350.0848,3.466194,-235.3329,0,0,1
132.2048,6.192509,-58.63396,1,0,0
103.9021,6.143911,-86.33298,1,0,0
156.6826,4.265865,-282.2734,0,0,1
96.06142,4.658305,-279.1547,0,0,1
44.79983,4.942603,-282.4977,0,0,1
419.4411,10.07413,-6.051697,0,0,1
428.984,10.07413,-68.06085,0,0,1
170.7131,10.07412,51.23238,0,1,0
445.8769,10.07413,-233.3309,0,0,1
356.8058,10.07413,-242.529,0,0,1
131.0917,10.07413,-57.17456,1,0,0
102.4251,10.07413,-83.93436,1,0,0
159.0575,10.07413,-287.1376,0,0,1
98.07571,10.07413,-284.5038,0,0,1
46.52974,10.07413,-288.722,0,0,1
426.123,15.34618,-9.325256,0,0,1
433.02,15.8742,-70.47302,0,0,1
171.8413,13.32907,50.41375,0,1,0
451.8336,17.3249,-238.5745,0,0,1
363.7107,16.8807,-249.9222,0,0,1
128.8702,13.90077,-54.26198,1,0,0
101.41,13.95705,-82.2857,1,0,0
161.2237,15.98388,-291.5742,0,0,1
99.96112,15.59594,-289.5107,0,0,1
48.59884,15.33737,-296.1664,0,0,1
436.8304,21.7567,-72.75018,0,0,1
174.7199,16.65217,48.32483,0,1,0
458.7976,24.75762,-244.7047,0,0,1
128.8803,17.72774,-54.27528,1,0,0
100.849,17.81869,-81.37474,1,0,0
164.7513,22.05132,-298.7992,0,0,1
193.1048,20.59389,34.98363,0,1,0
128.5783,21.5396,-53.87939,1,0,0
100.5768,21.67546,-80.9326,1,0,0
428.9369,35.26422,-136.1505,0,0,1
128.5847,25.36185,-53.88779,1,0,0
100.5902,25.54359,-80.95451,1,0,0
89.59717,0.0741272,136.7324,0,0,1
72.82391,0.0741272,125.8394,0,0,1
56.05062,0.07412672,114.9464,0,0,1
39.27737,0.0741272,104.0533,0,0,1
22.5041,0.0741272,93.16034,0,0,1
5.730827,0.0741272,82.26732,0,0,1
-11.04242,0.0741272,71.3743,0,0,1
-27.81561,0.0741272,60.4813,0,0,1
-44.58893,0.0741272,49.58829,0,0,1
-61.36218,0.0741272,38.69526,0,0,1
137.7963,0.0741272,108.4155,0,0,1
116.8297,0.07412672,94.79921,0,0,1
95.86311,0.07412767,81.18297,0,0,1
74.89651,0.0741272,67.5667,0,0,1
53.92994,0.0741272,53.95043,0,0,1
32.96335,0.0741272,40.33416,0,0,1
11.99677,0.0741272,26.7179,0,0,1
-8.969788,0.0741272,13.10162,0,0,1
-29.93634,0.0741272,-0.5145874,0,0,1
-50.90295,0.0741272,-14.13092,0,0,1
218.1281,0.07412767,61.22068,0,0,1
174.5598,0.606308,54.07841,0,1,0
162.2172,0.0741272,24.91061,0,0,1
134.2618,0.0741272,6.75559,0,0,1
106.3063,0.0741272,-11.39941,0,0,1
78.35091,0.07412732,-29.5545,0,0,1
50.39545,0.07412696,-47.70953,0,0,1
22.44,0.07412744,-65.8645,0,0,1
-30.48639,2.63043,1.365984,1,0.92,0.016
-33.47089,0.0741272,-102.1746,0,0,1
378.7918,0.0741272,-33.16901,0,0,1
172.9206,3.79949,55.23456,0,1,0
294.9255,0.0741272,-87.63416,0,0,1
252.9923,0.0741272,-114.8665,0,0,1
141.8194,2.277405,-55.70888,1,0,0
111.1925,2.201492,-80.12454,1,0,0
127.1928,0.0741272,-196.5642,0,0,1
85.25965,0.0741272,-223.7968,0,0,1
-31.16095,5.1577,3.672558,1,0.92,0.016
-0.413147,0.2468467,-269.1377,0,0,1
410.4016,4.74622,-51.73975,0,0,1
174.2959,6.921185,54.26451,0,1,0
375.2287,4.065609,-155.736,0,0,1
360.3633,3.566919,-224.8527,0,0,1
146.5137,6.101082,-61.56606,1,0,0
109.4048,6.170633,-77.3718,1,0,0
169.1954,4.16258,-277.9771,0,0,1
107.1144,4.494299,-278.7409,0,0,1
-31.21855,7.617878,3.869539,1,0.92,0.016
2.415771,5.025248,-283.426,0,0,1
431.2918,10.07413,-64.0127,0,0,1
176.869,10.07413,52.44955,0,1,0
471.7834,10.07413,-237.6204,0,0,1
365.8708,10.07413,-230.4943,0,0,1
145.0108,10.07413,-59.69085,1,0,0
108.0255,10.07413,-75.24798,1,0,0
172.0934,10.07413,-283.5939,0,0,1
109.4149,10.07413,-284.5244,0,0,1
-31.21855,10.07413,3.869532,1,0.92,0.016
3.617969,10.07413,-289.4979,0,0,1
435.7179,15.66466,-66.61304,0,0,1
421.9113,16.0405,-120.3947,0,0,1
485.1701,17.46338,-248.9731,0,0,1
371.6046,16.73913,-236.3677,0,0,1
138.9214,13.92638,-52.09313,1,0,0
106.9821,13.93314,-73.64137,1,0,0
174.6563,16.10419,-288.5616,0,0,1
111.5445,15.77149,-289.8785,0,0,1
-30.88337,12.54181,2.72342,1,0.92,0.016
4.662086,15.23039,-294.7714,0,0,1
439.4604,21.33283,-68.81177,0,0,1
423.8633,22.05125,-121.7717,0,0,1
492.7521,25.04309,-255.4031,0,0,1
406.0398,24.3709,-271.6415,0,0,1
138.258,17.75755,-51.26539,1,0,0
106.392,17.77048,-72.73267,1,0,0
-30.20271,15.05595,0.3959381,1,0.92,0.016
197.0465,20.30843,38.21703,0,1,0
409.5801,31.66838,-275.2681,0,0,1
137.8771,21.58105,-50.7901,1,0,0
106.0862,21.60182,-72.26172,1,0,0
427.1204,34.17639,-124.0691,0,0,1
413.0741,39.06265,-278.8472,0,0,1
137.7037,25.40565,-50.57384,1,0,0
106.0783,25.4438,-72.24958,1,0,0
-30.20417,20.03758,0.4009986,1,0.92,0.016
80.86012,0.0741272,123.027,0,0,1
63.33992,0.07412767,113.3811,0,0,1
45.81968,0.0741272,103.7353,0,0,1
28.29948,0.0741272,94.08947,0,0,1
10.77925,0.07412708,84.44364,0,0,1
-6.740906,0.0741272,74.79778,0,0,1
-24.26117,0.0741272,65.15195,0,0,1
-41.78137,0.0741272,55.50615,0,0,1
-59.30164,0.0741272,45.86032,0,0,1
-76.82178,0.0741272,36.21447,0,0,1
126.875,0.0741272,91.28368,0,0,1
104.9747,0.0741272,79.22639,0,0,1
83.07443,0.07412767,67.16912,0,0,1
61.17414,0.0741272,55.11184,0,0,1
39.27386,0.0741272,43.05455,0,0,1
17.3736,0.07412744,30.99728,0,0,1
-4.526672,0.07412815,18.93999,0,0,1
-26.42688,0.0741272,6.882727,0,0,1
-48.32715,0.0741272,-5.174561,0,0,1
-70.22742,0.0741272,-17.23187,0,0,1
203.5664,0.0741272,38.37828,0,0,1
174.366,0.0741272,22.30188,0,0,1
145.1656,0.0741272,6.225467,0,0,1
115.9653,0.0741272,-9.850769,0,0,1
86.76491,0.0741272,-25.92737,0,0,1
57.56456,0.07412708,-42.00372,0,0,1
28.36419,0.0741272,-58.08008,0,0,1
-26.4354,2.574954,6.909495,1,0.92,0.016
-30.03644,0.07412744,-90.23279,0,0,1
-59.23688,0.0741272,-106.3091,0,0,1
356.6447,0.08074427,-67.22253,0,0,1
313.1486,0.0741272,-91.54718,0,0,1
269.3481,0.07412744,-115.6618,0,0,1
153.1155,2.277405,-53.89772,1,0,0
117.7309,2.320729,-70.90614,1,0,0
137.9465,0.0741272,-188.0054,0,0,1
94.14593,0.0741272,-212.1201,0,0,1
-26.89096,5.104347,8.352143,1,0.92,0.016
6.544828,0.0741272,-260.3492,0,0,1
-38.56378,0.2724924,-273.8618,0,0,1
269.1201,6.028484,-6.843783,1,0.92,0.016
381.4777,4.25355,-147.6004,0,0,1
375.546,3.648834,-219.8968,0,0,1
159.5831,6.0774,-61.56606,1,0,0
116.0241,6.227379,-68.42695,1,0,0
186.3485,4.070543,-275.9205,0,0,1
122.8075,4.347949,-279.2365,0,0,1
-26.93944,7.590816,8.505661,1,0.92,0.016
11.06736,4.868078,-281.3806,0,0,1
-37.4635,5.089886,-282.7793,0,0,1
269.1201,10.07413,-6.843811,1,0.92,0.016
490.6735,10.07413,-237.1781,0,0,1
381.7953,10.07413,-226.0306,0,0,1
159.5831,10.07413,-61.56606,1,0,0
114.6487,10.07413,-66.42912,1,0,0
101.0768,10.07413,-121.0371,1,0,0
125.3135,10.07413,-285.1047,0,0,1
-26.93945,10.07413,8.505657,1,0.92,0.016
12.36317,10.07413,-287.4066,0,0,1
-36.90826,10.07413,-287.2798,0,0,1
421.7804,15.77859,-112.1563,0,0,1
144.4685,13.04839,46.82796,0,1,0
388.5956,16.67456,-232.7051,0,0,1
159.5831,14.07086,-61.56606,1,0,0
116.0441,13.92123,-68.45601,1,0,0
98.22285,14.25048,-115.8534,1,0,0
127.1793,15.91107,-289.4738,0,0,1
-26.70904,12.56494,7.776046,1,0.92,0.016
13.49019,15.39056,-292.6476,0,0,1
-36.45654,15.13472,-290.9407,0,0,1
423.8645,21.52834,-113.594,0,0,1
147.8898,16.10488,44.02135,0,1,0
398.348,23.53677,-242.2774,0,0,1
159.5831,18.06758,-61.56606,1,0,0
112.5374,17.64526,-63.36242,1,0,0
96.67942,18.36284,-113.0499,1,0,0
128.7828,21.82927,-293.2288,0,0,1
-26.24853,15.08575,6.317698,1,0.92,0.016
-36.03699,20.25895,-294.3417,0,0,1
270.5981,22.25924,-7.863423,1,0.92,0.016
500.8497,31.83654,-245.5261,0,0,1
413.0405,30.85966,-256.6984,0,0,1
159.2556,22.04937,-61.17773,1,0,0
112.882,21.44897,-63.86296,1,0,0
96.20827,22.47786,-112.1943,1,0,0
130.4238,27.83157,-297.0715,0,0,1
-25.81241,17.63416,4.936664,1,0.92,0.016
-35.56732,25.45818,-298.1477,0,0,1
270.5981,26.32094,-7.86344,1,0.92,0.016
160.0182,22.71825,34.07187,0,1,0
415.8469,37.93883,-259.4529,0,0,1
155.0692,25.78642,-56.2141,1,0,0
112.8371,25.23743,-63.79772,1,0,0
96.60986,26.64577,-112.9237,1,0,0
132.4368,33.95473,-301.7851,0,0,1
-26.26555,20.09515,6.371657,1,0.92,0.016
68.77597,0.0741272,107.0856,0,0,1
50.46381,0.0741272,99.04412,0,0,1
32.15164,0.0741272,91.00272,0,0,1
13.83949,0.0741272,82.96124,0,0,1
-4.472656,0.0741272,74.91982,0,0,1
-22.78479,0.0741272,66.87832,0,0,1
-41.09698,0.0741272,58.83691,0,0,1
-59.40912,0.0741272,50.79545,0,0,1
-77.72131,0.0741272,42.75404,0,0,1
-96.03345,0.0741272,34.71258,0,0,1
111.7698,0.0741272,71.35699,0,0,1
88.87959,0.0741272,61.30516,0,0,1
65.98939,0.0741272,51.25338,0,0,1
43.09917,0.07412696,41.20157,0,0,1
20.20895,0.0741272,31.14977,0,0,1
-2.681213,0.07412624,21.09794,0,0,1
-25.57141,0.0741272,11.04613,0,0,1
-48.46161,0.0741272,0.9943545,0,0,1
-71.35181,0.07412714,-9.057556,0,0,1
-94.242,0.07412732,-19.10931,0,0,1
183.4261,0.0741272,11.80932,0,0,1
152.9059,0.07412726,-1.593079,0,0,1
122.3856,0.0741272,-14.99548,0,0,1
91.8653,0.07412708,-28.39795,0,0,1
61.34504,0.07412708,-41.80042,0,0,1
30.82476,0.0741272,-55.2027,0,0,1
-24.46964,2.467676,7.654551,1,0.92,0.016
-30.21576,0.0741272,-82.00751,0,0,1
-60.73596,0.0741272,-95.40991,0,0,1
-91.25629,0.07412696,-108.8123,0,0,1
326.7388,0.0741272,-107.2861,0,0,1
280.9584,0.0741272,-127.3897,0,0,1
160.6241,2.277405,-59.91451,1,0,0
120.3775,2.432998,-69.09084,1,0,0
106.644,1.57213,-122.1328,1,0,0
97.8368,0.0741272,-207.8041,0,0,1
-24.94351,5.033681,9.113227,1,0.92,0.016
6.275961,0.07412732,-248.0114,0,0,1
-39.50446,0.0741272,-268.115,0,0,1
-85.85083,0.3900528,-271.2148,0,0,1
379.1287,4.464856,-150.823,0,0,1
375.48,3.843883,-220.246,0,0,1
162.0301,6.154992,-61.56606,1,0,0
118.6803,6.282569,-66.66858,1,0,0
102.2579,5.911983,-114.3545,1,0,0
128.8524,4.302732,-278.4335,0,0,1
-25.00627,7.555926,9.306407,1,0.92,0.016
13.53423,4.742625,-281.0297,0,0,1
-37.72485,4.934427,-282.5911,0,0,1
-85.46271,5.123771,-282.8748,0,0,1
144.0433,10.07399,44.53709,0,1,0
381.3261,10.07413,-225.9891,0,0,1
161.946,10.07413,-61.46732,1,0,0
117.3081,10.07413,-64.7101,1,0,0
98.3903,10.07413,-107.4958,1,0,0
131.4415,10.07413,-284.3295,0,0,1
-25.00626,10.07413,9.306408,1,0.92,0.016
14.84185,10.07413,-286.9781,0,0,1
-37.14923,10.07413,-287.2728,0,0,1
-85.26135,10.07413,-288.924,0,0,1
143.7359,12.94588,44.79254,0,1,0
388.0363,16.4678,-232.581,0,0,1
159.9034,13.96185,-59.06778,1,0,0
118.7103,13.8662,-66.71132,1,0,0
96.32156,14.11601,-103.8271,1,0,0
133.2054,15.95378,-288.3462,0,0,1
-24.76344,12.60015,8.558908,1,0.92,0.016
16.01157,15.51878,-292.2993,0,0,1
-36.68469,15.29548,-291.0521,0,0,1
-85.0777,15.13194,-294.4414,0,0,1
144.5997,15.83772,44.07468,0,1,0
397.0073,23.09499,-241.394,0,0,1
160.3115,17.86161,-59.54723,1,0,0
118.0966,17.6373,-65.83545,1,0,0
95.61036,18.12909,-102.5658,1,0,0
134.606,21.90311,-291.5359,0,0,1
-24.28448,15.15702,7.084604,1,0.92,0.016
-36.24915,20.58521,-294.5948,0,0,1
-84.86273,20.30973,-300.8991,0,0,1
146.6736,18.79188,42.35128,0,1,0
412.4927,30.21008,-256.6066,0,0,1
159.5535,21.72175,-58.65675,1,0,0
114.7402,21.2468,-61.04515,1,0,0
95.36237,22.14149,-102.1261,1,0,0
135.9457,27.91757,-294.5867,0,0,1
-23.87036,17.73848,5.809872,1,0.92,0.016
-35.74506,25.95943,-298.6941,0,0,1
157.6297,22.20745,33.24659,0,1,0
415.3561,37.07113,-259.4196,0,0,1
156.7075,25.43607,-55.31357,1,0,0
115.4828,25.0218,-62.10502,1,0,0
95.52498,26.17713,-102.4145,1,0,0
137.3965,34.00971,-297.8905,0,0,1
-24.34126,20.2326,7.259353,1,0.92,0.016
58.62697,0.07412767,95.68771,0,0,1
39.80895,0.0741272,88.9141,0,0,1
20.9909,0.0741272,82.14048,0,0,1
2.172881,0.0741272,75.36688,0,0,1
-16.64514,0.0741272,68.59326,0,0,1
-35.46313,0.0741272,61.81966,0,0,1
-54.28119,0.0741272,55.04605,0,0,1
-73.09918,0.0741272,48.27243,0,0,1
-91.9173,0.0741272,41.49884,0,0,1
-110.7353,0.0741272,34.72522,0,0,1
99.08355,0.0741272,57.10965,0,0,1
75.56104,0.07412672,48.64261,0,0,1
52.03846,0.0741272,40.1756,0,0,1
28.51591,0.07412696,31.70864,0,0,1
4.993363,0.0741272,23.24161,0,0,1
-18.52911,0.07412624,14.77459,0,0,1
-42.05164,0.0741272,6.307557,0,0,1
-65.57416,0.0741272,-2.159363,0,0,1
-89.0968,0.0741272,-10.6264,0,0,1
-112.6193,0.07412708,-19.09351,0,0,1
166.5111,0.07412714,-7.187134,0,0,1
135.1478,0.0741272,-18.4765,0,0,1
103.7844,0.0741272,-29.76581,0,0,1
72.42098,0.07412708,-41.05518,0,0,1
41.05759,0.07412696,-52.34448,0,0,1
-15.51454,2.307094,6.399484,1,0.92,0.016
-21.66913,0.07412696,-74.92328,0,0,1
-53.03253,0.07412744,-86.21259,0,0,1
-84.39594,0.0741272,-97.50201,0,0,1
-114.573,1.018719,-74.90015,1,0,0
301.3664,0.0741272,-135.7806,0,0,1
