-150.0299,8.130836,61.39881,0,1,0
-287.7999,4.613216,-266.8368,0,0,1
-341.108,4.606128,-254.3305,0,0,1
-250.5047,7.305987,1.356692,1,0.92,0.016
-453.9784,4.499112,-237.3309,0,0,1
16.96499,10.07413,-286.6934,0,0,1
-28.99237,10.07413,-287.7723,0,0,1
-77.33197,10.07413,-287.6588,0,0,1
-117.6719,10.07413,-64.48686,1,0,0
-148.2866,10.07413,-61.56606,1,0,0
-150.1261,10.07412,61.01139,0,1,0
-289.3279,10.07413,-271.1151,0,0,1
-344.0577,10.07413,-260.5834,0,0,1
-250.5047,10.07413,1.356673,1,0.92,0.016
-456.6481,10.07413,-241.0398,0,0,1
18.04807,15.03765,-291.5308,0,0,1
-28.5412,15.14517,-291.0416,0,0,1
-77.08972,15.2782,-292.6938,0,0,1
-117.7601,13.18,-66.40347,1,0,0
-148.2866,13.20662,-61.56606,1,0,0
-150.216,12.02512,60.64962,0,1,0
-290.7191,15.62139,-275.0099,0,0,1
-348.6172,15.71471,-270.2488,0,0,1
-251.1014,12.85348,0.3495592,1,0.92,0.016
-458.6682,15.72368,-243.8464,0,0,1
-28.1449,20.27005,-293.9133,0,0,1
-76.76208,20.6129,-299.5046,0,0,1
-117.7568,16.28446,-66.33145,1,0,0
-148.2866,16.33911,-61.56606,1,0,0
-150.5841,14.00668,59.16708,0,1,0
-292.3002,21.26221,-279.4365,0,0,1
-253.4012,15.71927,-3.532489,1,0.92,0.016
-460.5981,21.43458,-246.5274,0,0,1
-27.74451,25.44961,-296.8152,0,0,1
-117.7535,19.38751,-66.25945,1,0,0
-148.2866,19.4716,-61.56606,1,0,0
-151.3751,16.07142,55.98161,0,1,0
-255.0246,18.63336,-6.272703,1,0.92,0.016
-462.6989,27.21497,-249.4461,0,0,1
-27.29095,30.698,-300.1023,0,0,1
-117.423,22.21,-59.07802,1,0,0
-134.0875,18.6581,36.55374,0,1,0
-151.8805,18.15442,53.94608,0,1,0
-251.4882,21.22062,-0.3033308,1,0.92,0.016
-465.938,33.13449,-253.946,0,0,1
-101.9061,0.0741272,26.39693,0,0,1
-119.846,0.07412815,35.23759,0,0,1
-137.7859,0.0741272,44.07826,0,0,1
-155.726,0.0741272,52.91891,0,0,1
-173.666,0.0741272,61.75957,0,0,1
-191.6059,0.0741272,70.60024,0,0,1
-209.5459,0.0741272,79.44086,0,0,1
-227.4859,0.0741272,88.28154,0,0,1
-245.4258,0.0741272,97.12224,0,0,1
-263.3658,0.0741272,105.9629,0,0,1
-101.5828,0.0741272,-29.50391,0,0,1
-124.0077,0.0741272,-18.453,0,0,1
-146.4326,0.07412726,-7.402222,0,0,1
-154.0206,2.333864,59.31771,0,1,0
-191.2826,0.0741272,14.69947,0,0,1
-213.7076,0.0741272,25.75031,0,0,1
-236.1326,0.07412815,36.80113,0,0,1
-258.5575,0.0741272,47.85195,0,0,1
-280.9825,0.0741272,58.90276,0,0,1
-303.4075,0.0741272,69.95358,0,0,1
-101.0439,0.0741272,-122.6718,0,0,1
-127.5825,1.285682,-64.5713,1,0,0
-152.5869,1.506521,-44.04276,1,0,0
-153.7983,4.294313,60.15162,0,1,0
-220.6437,0.0741272,-63.73413,0,0,1
-250.5436,0.0741272,-48.99963,0,0,1
-255.4388,1.484886,5.837805,1,0.92,0.016
-310.3436,0.0741272,-19.5307,0,0,1
-340.2436,0.07412726,-4.796387,0,0,1
-319.8073,1.959788,55.20527,0,0,0
-100.147,0.6337571,-277.7238,0,0,1
-127.4474,4.247612,-62.82914,1,0,0
-155.5301,4.022003,-61.56606,1,0,0
-153.6422,6.232807,60.73722,0,1,0
-279.366,0.0741272,-220.601,0,0,1
-323.3034,0.1154137,-196.6477,0,0,1
-254.5126,4.382802,7.323207,1,0.92,0.016
-403.6923,0.4031551,-140.9937,0,0,1
-458.7657,0.0741272,-132.1945,0,0,1
-319.0937,4.682383,55.84703,0,0,0
-101.1908,6.967949,-97.27566,1,0,0
-127.2611,7.183254,-60.42552,1,0,0
-155.5301,7.048064,-61.56606,1,0,0
-153.9605,8.141342,59.54301,0,1,0
-296.2728,4.594275,-265.7648,0,0,1
-350.0541,4.489595,-250.9319,0,0,1
-254.196,7.23442,7.831017,1,0.92,0.016
-475.1108,4.089385,-233.9216,0,0,1
-550.8986,3.778548,-231.2271,0,0,1
-319.8817,7.368399,55.13842,0,0,0
-101.2452,10.07413,-87.87817,1,0,0
-127.1551,10.07413,-59.0581,1,0,0
-155.5301,10.07413,-61.56606,1,0,0
-155.1329,10.07406,55.14405,0,1,0
-297.746,10.07413,-269.7004,0,0,1
-353.6844,10.07413,-258.2988,0,0,1
-254.196,10.07413,7.831019,1,0.92,0.016
-478.7597,10.07413,-238.6694,0,0,1
-553.7905,10.07413,-234.3355,0,0,1
-319.4476,10.07413,55.52876,0,0,0
-101.272,13.05465,-83.22737,1,0,0
-127.2518,12.96388,-60.30506,1,0,0
-155.035,13.07155,-58.61853,1,0,0
-187.0878,13.26826,-64.75102,1,0,0
-299.0958,15.6341,-273.3061,0,0,1
-254.7211,12.92371,6.988784,1,0.92,0.016
-481.622,16.16365,-242.3937,0,0,1
-556.1731,16.44388,-236.8965,0,0,1
-319.3844,12.77363,55.58555,0,0,0
-101.282,16.00457,-81.51613,1,0,0
-126.8166,15.74907,-54.69084,1,0,0
-155.5301,16.12625,-61.56606,1,0,0
-186.9311,16.45045,-64.16297,1,0,0
-300.6322,21.2813,-277.4106,0,0,1
-255.6563,15.80847,5.488951,1,0.92,0.016
-484.317,22.3399,-245.9004,0,0,1
-558.5515,22.88052,-239.4531,0,0,1
-326.3838,15.64794,49.2911,0,0,0
-101.2897,18.93386,-80.17712,1,0,0
-126.7642,18.56764,-54.0146,1,0,0
-155.5301,19.15232,-61.56606,1,0,0
-186.4058,19.57861,-62.19202,1,0,0
-255.852,18.68668,5.175118,1,0.92,0.016
-487.6678,28.63454,-250.2603,0,0,1
-561.4728,29.40695,-242.5933,0,0,1
-332.9374,18.68036,43.39743,0,0,0
-101.292,21.87272,-79.77529,1,0,0
-126.8412,21.4358,-55.00768,1,0,0
-155.5301,22.17838,-61.56606,1,0,0
-186.7547,22.7999,-63.50113,1,0,0
-171.7742,17.85934,66.81325,0,1,0
-254.9365,21.48866,6.643436,1,0.92,0.016
-491.9933,35.09978,-255.8886,0,0,1
-335.2296,21.66358,41.33608,0,0,0
-157.9233,0.0741272,33.19299,0,0,1
-173.0789,0.0741272,46.24316,0,0,1
-188.2346,0.0741272,59.29339,0,0,1
-203.3902,0.0741272,72.34359,0,0,1
-218.5457,0.0741272,85.3938,0,0,1
-233.7014,0.0741272,98.44402,0,0,1
-248.8569,0.0741272,111.4942,0,0,1
-264.0125,0.0741272,124.5445,0,0,1
-279.1681,0.0741272,137.5946,0,0,1
-294.3237,0.0741272,150.6449,0,0,1
-150.6747,3.133787,61.91102,0,1,0
-190.5489,0.0741272,-4.696045,0,0,1
-209.4934,0.0741272,11.61671,0,0,1
-228.4378,0.0741272,27.9295,0,0,1
-247.3823,0.07412815,44.24228,0,0,1
-266.3269,0.07412624,60.55501,0,0,1
-285.2714,0.0741272,76.86779,0,0,1
-304.2158,0.0741272,93.18055,0,0,1
-323.1604,0.0741272,109.4933,0,0,1
-308.7593,1.46989,143.1406,0,0,1
-150.4311,4.895576,62.87585,0,1,0
-219.6655,0.07412696,-89.59467,0,0,1
-244.9248,0.07412744,-67.84436,0,0,1
-270.1841,0.0741272,-46.09399,0,0,1
-295.4434,0.0741272,-24.34369,0,0,1
-320.7027,0.07412714,-2.593262,0,0,1
-310.787,1.523086,52.60495,0,0,0
-354.1454,0.7112365,54.22892,0,0,0
-396.4807,0.0741272,62.65771,0,0,1
-421.7401,0.0741272,84.40812,0,0,1
-150.5796,6.610907,62.28769,0,1,0
-275.6949,0.200264,-252.9667,0,0,1
-300.117,0.8112555,-191.6227,0,0,1
-319.4483,1.440647,-133.4482,0,0,1
-377.5173,0.5612922,-141.4678,0,0,1
-429.1476,0.08353162,-128.5336,0,0,1
-313.6022,4.296114,49.92799,0,0,0
-352.2362,3.879705,55.71833,0,0,0
-543.1215,0.0741272,-31.01343,0,0,1
-581.0105,0.0741272,1.612172,0,0,1
-150.9104,8.330421,60.97728,0,1,0
-280.8042,4.990964,-267.8646,0,0,1
-329.2258,4.758064,-256.9041,0,0,1
-377.3427,4.601705,-236.1055,0,0,1
-445.0637,4.146518,-237.8606,0,0,1
-520.8892,3.672853,-235.0757,0,0,1
-313.0359,7.192904,50.46653,0,0,0
-352.9299,6.96828,55.17714,0,0,0
-645.6853,3.908423,-96.52911,0,0,1
-663.7207,4.208616,-41.38428,0,0,1
-151.0128,10.07412,60.57132,0,1,0
-282.3257,10.07413,-272.3008,0,0,1
-331.8937,10.07413,-262.8875,0,0,1
-385.34,10.07413,-250.286,0,0,1
-448.6258,10.07413,-242.9437,0,0,1
-524.8614,10.07413,-239.6887,0,0,1
-310.8077,10.07413,52.58527,0,0,0
-352.506,10.07413,55.50787,0,0,0
-649.2473,10.07413,-98.80444,0,0,1
-668.7343,10.07413,-43.99066,0,0,1
-151.1169,11.82536,60.15881,0,1,0
-283.7031,15.24026,-276.3174,0,0,1
-335.0074,15.52617,-269.8704,0,0,1
-388.6605,15.77247,-256.1739,0,0,1
-450.8906,16.10277,-246.176,0,0,1
-527.5602,16.57764,-242.8231,0,0,1
-312.2755,12.94492,51.18953,0,0,0
-351.4409,13.16146,56.33881,0,0,0
-652.1788,16.31363,-100.6771,0,0,1
-465.1266,13.86148,61.85369,1,0,0
-151.5007,13.60467,58.63823,0,1,0
-285.3712,20.50187,-281.1812,0,0,1
-453.0002,22.20457,-249.1865,0,0,1
-530.0251,23.1567,-245.6856,0,0,1
-318.0089,15.97316,45.7377,0,0,0
-354.3742,16.32175,54.0504,0,0,0
-654.8695,22.6143,-102.3958,0,0,1
-463.1424,17.60729,62.8852,1,0,0
-152.3909,15.46753,55.11173,0,1,0
-455.3365,28.39132,-252.5205,0,0,1
-532.5948,29.81613,-248.6698,0,0,1
-333.959,19.57969,30.57077,0,0,0
-657.4984,28.97403,-104.0751,0,0,1
-461.7373,21.32977,63.6156,1,0,0
-152.799,17.325,53.49472,0,1,0
-536.0486,36.60853,-252.6808,0,0,1
-660.4091,35.40632,-105.9343,0,0,1
-464.0643,25.17905,62.40598,1,0,0
-213.6382,0.0741272,55.56941,0,0,1
-224.7751,0.0741272,72.18176,0,0,1
-235.912,0.0741272,88.79411,0,0,1
-247.0489,0.0741272,105.4064,0,0,1
-258.1858,0.0741272,122.0188,0,0,1
-269.3227,0.0741272,138.6311,0,0,1
-280.4596,0.0741272,155.2435,0,0,1
-290.2137,0.1475172,172.4293,0,0,1
-288.5495,0.7849731,192.8421,0,0,1
-291.6828,1.127306,209.8113,0,0,1
-241.2479,0.0741272,6.961763,0,0,1
-255.1691,0.07412624,27.72716,0,0,1
-269.0902,0.0741272,48.49261,0,0,1
-283.0112,0.0741272,69.25805,0,0,1
-296.9324,0.0741272,90.02348,0,0,1
-310.8535,0.07412624,110.7889,0,0,1
-304.7915,0.9759922,142.2365,0,0,1
-332.7173,0.3279905,154.7995,0,0,1
-352.6168,0.0741272,173.0852,0,0,1
-363.3237,0.1961832,194.5359,0,0,1
-287.2642,0.0741272,-74.05096,0,0,1
-305.8257,0.0741272,-46.36371,0,0,1
-324.3871,0.0741272,-18.67645,0,0,1
-309.9692,1.449707,42.16062,0,0,0
-361.5101,0.0741272,36.69798,0,0,1
-380.0717,0.07412624,64.38518,0,0,1
-382.7784,0.6107826,100.5477,0,0,1
-417.1945,0.07412624,119.7597,0,0,1
-373.1882,1.955545,166.7414,0,0,1
-378.6934,2.227935,191.2588,0,0,1
-368.8278,0.4533048,-217.6454,0,0,1
-269.3236,4.608428,7.024652,1,0.92,0.016
-418.2066,0.5797138,-132.6389,0,0,1
-313.0252,4.23954,39.08889,0,0,0
-341.0489,3.93554,53.59395,0,0,0
-518.5078,0.07412708,-28.42218,0,0,1
-546.35,0.0741272,13.10866,0,0,1
-461.566,2.465379,101.3549,1,0,0
-474.481,2.631156,135.5049,1,0,0
-629.8766,0.0741272,137.7012,0,0,1
-380.4339,5.053532,-238.0787,0,0,1
-268.853,7.34902,7.713057,1,0.92,0.016
-500.39,4.088406,-232.4667,0,0,1
-310.8832,7.186504,41.24193,0,0,0
-341.1022,7.004159,53.54992,0,0,0
-643.3066,3.571644,-112.087,0,0,1
-662.3589,3.765218,-48.90521,0,0,1
-461.566,6.269756,101.355,1,0,0
-470.9126,6.38841,136.6053,1,0,0
-698.1075,4.426379,123.1529,0,0,1
-387.0476,10.07413,-249.7221,0,0,1
-268.8529,10.07413,7.713071,1,0.92,0.016
-504.4409,10.07413,-237.3875,0,0,1
-310.1886,10.07413,41.94016,0,0,0
-339.4365,10.07413,54.92542,0,0,0
-647.7426,10.07413,-115.061,0,0,1
-668.6116,10.07413,-52.24768,0,0,1
-461.566,10.07413,101.355,1,0,0
-468.1974,10.07413,137.4426,1,0,0
-710.525,10.07413,120.5053,0,0,1
-389.9268,15.26663,-254.7911,0,0,1
-443.5508,15.67313,-247.8021,0,0,1
-507.4254,16.16587,-241.0126,0,0,1
-312.3221,12.98165,39.79561,0,0,0
-340.1629,13.132,54.32554,0,0,0
-651.0601,16.66996,-117.285,0,0,1
-673.2074,16.50544,-54.70441,0,0,1
-461.566,13.8785,101.355,1,0,0
-465.3158,13.70375,138.3312,1,0,0
-723.0952,15.9591,117.825,0,0,1
-393.3188,20.58199,-260.7625,0,0,1
-445.8324,21.34719,-251.1392,0,0,1
-510.1158,22.33871,-244.2809,0,0,1
-318.1591,16.05148,33.92841,0,0,0
-341.9647,16.23635,52.83772,0,0,0
-654.0105,23.33683,-119.263,0,0,1
-677.9703,23.04423,-57.25055,0,0,1
-461.566,17.68289,101.3549,1,0,0
-464.2134,17.31128,138.6712,1,0,0
-448.4276,27.1118,-254.9349,0,0,1
-512.8502,28.59462,-247.6022,0,0,1
-344.3628,19.4103,50.85748,0,0,0
-657.0365,30.07747,-121.2916,0,0,1
-461.566,21.48727,101.3549,1,0,0
-464.7863,20.94711,138.4945,1,0,0
-516.0677,34.96207,-251.5106,0,0,1
-346.2148,22.61797,49.32814,0,0,0
-660.8596,36.92936,-123.8547,0,0,1
-461.566,25.29164,101.355,1,0,0
-464.5937,24.56367,138.5539,1,0,0
-253.9158,0.0741272,84.81969,0,0,1
-261.1016,0.0741272,103.4842,0,0,1
-268.2874,0.0741272,122.1488,0,0,1
-275.4731,0.0741272,140.8133,0,0,1
-282.6589,0.0741272,159.4778,0,0,1
-288.5526,0.1433535,178.6398,0,0,1
-286.2819,0.6286564,199.7566,0,0,1
-289.4747,0.8074694,218.0036,0,0,1
-294.6122,0.8805351,235.4153,0,0,1
-299.8944,0.9420147,252.5575,0,0,1
-291.595,0.07412624,43.52459,0,0,1
-300.5771,0.07412624,66.85526,0,0,1
-309.5594,0.0741272,90.18594,0,0,1
-318.5415,0.0741272,113.5166,0,0,1
-306.9778,0.9900303,147.211,0,0,1
-336.1163,0.0908289,160.328,0,0,1
-345.4881,0.0741272,183.5086,0,0,1
-354.4703,0.0741272,206.8393,0,0,1
-346.83,0.7128382,231.4365,0,0,1
-330.139,1.645083,252.9507,0,0,1
-354.3936,0.0741272,-25.30054,0,0,1
-314.1702,2.057621,54.24246,0,0,0
-354.7451,0.931901,55.19214,0,0,0
-377.9605,0.5046692,75.85706,0,0,1
-402.2986,0.0741272,99.12974,0,0,1
-381.4448,1.129498,142.8767,0,0,1
-371.5499,1.767393,176.3565,0,0,1
-385.1666,1.657897,201.5666,0,0,1
-355.478,2.80394,230.7776,0,0,1
-337.3797,3.550648,253.0449,1,0.92,0.016
-479.9907,0.0741272,-162.9507,0,0,1
-317.3874,4.64826,51.2572,0,0,0
-354.7232,3.979825,55.20908,0,0,0
-533.8839,0.0741272,-22.96674,0,0,1
-551.8483,0.0741272,23.69459,0,0,1
-459.1664,2.44539,112.9541,1,0,0
-490.0689,2.090486,143.8312,1,0,0
-605.7415,0.07412815,163.6786,0,0,1
-364.2599,5.058616,230.1085,0,0,1
-336.1976,5.747092,253.0295,1,0.92,0.016
-544.8171,4.213883,-233.9985,0,0,1
-315.4168,7.38617,53.08568,0,0,0
-354.3012,7.032093,55.53589,0,0,0
-646.0027,3.772491,-94.02747,0,0,1
-468.9421,5.998084,65.51361,1,0,0
-456.6767,6.286442,113.9127,1,0,0
-484.6732,6.137983,145.312,1,0,0
-664.2089,4.492411,153.6357,0,0,1
-677.1436,4.560802,206.2682,0,0,1
-336.1976,7.91061,253.0295,1,0.92,0.016
-547.548,10.07413,-236.9913,0,0,1
-314.4017,10.07413,54.02761,0,0,0
-354.1629,10.07411,55.64295,0,0,0
-649.5723,10.07413,-96.28979,0,0,1
-464.4152,10.07414,67.79704,1,0,0
-454.7052,10.07413,114.6717,1,0,0
-481.6758,10.07413,146.1346,1,0,0
-669.3177,10.07413,152.7582,0,0,1
-680.7291,10.07413,205.9951,0,0,1
-336.1976,10.07413,253.0295,1,0.92,0.016
-549.7941,16.00042,-239.4531,0,0,1
-314.9581,12.75628,53.51128,0,0,0
-352.7914,13.09788,56.7052,0,0,0
-652.4487,16.4506,-98.11285,0,0,1
-467.2892,14.13176,66.34735,1,0,0
-454.053,13.83371,114.9228,1,0,0
-479.4118,13.95599,146.7559,1,0,0
-674.0743,15.754,151.9411,0,0,1
-683.5233,15.64874,205.7822,0,0,1
-336.8156,12.24338,253.0375,1,0.92,0.016
-551.9735,21.98454,-241.8416,0,0,1
-318.9446,15.53946,49.81232,0,0,0
-355.9205,16.19743,54.28179,0,0,0
-655.1304,22.88933,-99.81244,0,0,1
-465.667,18.15323,67.1656,1,0,0
-453.197,17.57494,115.2523,1,0,0
-478.1613,17.81204,147.099,1,0,0
-682.6389,21.6043,150.47,0,0,1
-686.0606,21.27209,205.5888,0,0,1
-338.2601,14.43946,253.0563,1,0.92,0.016
-554.4814,28.03959,-244.5902,0,0,1
-333.0641,18.80856,36.71101,0,0,0
-371.5533,19.82725,42.17519,0,0,0
-657.6768,29.38562,-101.4263,0,0,1
-456.3013,21.87964,71.88985,1,0,0
-452.7737,21.31175,115.4153,1,0,0
-477.5353,21.66162,147.2708,1,0,0
-688.5383,26.94247,205.4001,0,0,1
-339.7225,16.66287,253.0753,1,0.92,0.016
-334.9526,21.81574,34.95861,0,0,0
-660.4539,35.95175,-103.1865,0,0,1
-459.0665,25.93808,70.49506,1,0,0
-452.7298,25.05572,115.4322,1,0,0
-477.561,25.52518,147.2638,1,0,0
-691.2526,32.66955,205.1932,0,0,1
-339.45,18.849,253.0718,1,0.92,0.016
-287.7881,0.0741272,123.7979,0,0,1
-290.5007,0.0741272,143.6131,0,0,1
-293.2133,0.0741272,163.4283,0,0,1
-287.9664,0.4871206,186.0004,0,0,1
-287.0026,0.6695004,205.8534,0,0,1
-289.736,0.6603003,224.4639,0,0,1
-292.0309,0.6731787,243.127,0,0,1
-298.8246,0.4647312,262.0158,0,0,1
-309.489,0.0741272,282.3194,0,0,1
-312.2016,0.0741272,302.1346,0,0,1
-331.3563,0.1858988,94.01054,0,0,1
-309.9372,1.243959,132.5732,0,0,1
-313.5265,1.2189,154.1734,0,0,1
-344.1075,0.0741272,166.5543,0,0,1
-347.4984,0.07412815,191.3233,0,0,1
-350.5223,0.08893776,216.1425,0,0,1
-311.1075,1.79359,242.4326,0,0,1
-331.698,1.094778,264.0349,0,0,1
-336.1547,1.04002,286.4971,0,0,1
-364.4521,0.0741272,315.1682,0,0,1
-410.8472,0.07412815,39.66314,0,0,1
-382.8788,1.114893,91.14243,0,0,1
-419.8893,0.07412815,105.7138,0,0,1
-374.5944,1.625005,155.9943,0,0,1
-372.946,1.792882,185.2112,0,0,1
-433.4524,0.0741272,204.7897,0,0,1
-339.5218,3.014965,241.3984,1,0.92,0.016
-342.6382,3.017177,264.7069,0,0,1
-343.6677,3.080029,287.6742,0,0,1
-412.9158,1.182843,327.2572,0,0,1
-564.6714,0.07412696,-65.50531,0,0,1
-571.4529,0.0741272,-15.96729,0,0,1
-458.9489,2.585242,87.91782,1,0,0
-465.6194,2.552181,124.465,1,0,0
-591.7289,0.0755291,132.663,0,0,1
-553.8767,0.9765129,188.3041,0,0,1
-337.5831,5.406628,241.469,1,0.92,0.016
-349.3355,5.237901,265.1183,0,0,1
-470.7958,2.946355,307.5913,0,0,1
-565.4513,1.227298,365.3065,0,0,1
-641.4741,4.241977,-118.0149,0,0,1
-659.239,4.13675,-65.82971,0,0,1
-460.3337,6.315096,87.28695,1,0,0
-462.8029,6.342382,125.4406,1,0,0
-693.988,4.028374,108.1021,0,0,1
-666.2501,4.391105,172.9207,0,0,1
-337.5831,7.740378,241.469,1,0.92,0.016
-355.7066,7.593423,265.5096,0,0,1
-545.5697,5.785301,319.3061,0,0,1
-504.7142,6.231927,350.1557,1,0,0
-645.0425,10.07413,-120.4546,0,0,1
-665.7119,10.07413,-69.50635,0,0,1
-459.0692,10.07413,87.86304,1,0,0
-460.9178,10.07413,126.0935,1,0,0
-704.7316,10.07413,105.5216,0,0,1
-669.5091,10.07413,172.4745,0,0,1
-337.5831,10.07413,241.469,1,0.92,0.016
-690.2753,10.07413,286.0597,0,0,1
-694.2687,10.07413,342.6028,0,0,1
-499.6885,10.07413,348.9021,1,0,0
-648.0364,15.97738,-122.5015,0,0,1
-670.2755,16.12935,-72.09845,0,0,1
-454.8159,13.77509,89.80089,1,0,0
-462.9057,13.80695,125.405,1,0,0
-504.0017,14.17568,153.7336,1,0,0
-672.0005,15.81519,172.1335,0,0,1
-338.3213,12.41523,241.4421,1,0.92,0.016
-693.6109,15.8745,286.2646,0,0,1
-697.3035,15.83403,343.0782,0,0,1
-495.9091,13.83208,347.9593,1,0,0
-650.7657,21.93977,-124.3675,0,0,1
-675.847,22.30357,-75.26306,0,0,1
-455.5452,17.49139,89.46859,1,0,0
-461.8756,17.51838,125.7618,1,0,0
-501.7783,18.23173,154.2676,1,0,0
-674.3074,21.60282,171.8177,0,0,1
-341.5864,14.82135,241.3233,1,0.92,0.016
-696.7583,21.73671,286.4579,0,0,1
-700.2297,21.65067,343.5367,0,0,1
-493.8254,17.55015,347.4395,1,0,0
-653.4078,27.95848,-126.1739,0,0,1
-454.4911,21.16675,89.94884,1,0,0
-461.3983,21.22565,125.9271,1,0,0
-501.0578,22.28842,154.4407,1,0,0
-676.5825,27.43606,171.5062,0,0,1
-345.9205,17.32442,241.1655,1,0.92,0.016
-700.2461,27.6708,286.6721,0,0,1
-703.5063,27.53424,344.0501,0,0,1
-492.8541,21.26027,347.1973,1,0,0
-656.2411,34.04272,-128.111,0,0,1
-450.7686,24.70755,91.64482,1,0,0
-457.5,24.78101,127.2774,1,0,0
-501.6435,26.38382,154.3,1,0,0
-678.9766,33.32002,171.1785,0,0,1
-342.7227,19.61383,241.2819,1,0.92,0.016
-706.0757,33.76545,287.0302,0,0,1
-708.3909,33.5437,344.8153,0,0,1
-492.7751,24.98595,347.1776,1,0,0
-294.3466,1.005136,182.28,0,0,1
-289.5385,1.12898,200.9595,0,0,1
-290.4244,0.9791775,218.1904,0,0,1
-293.5209,0.7170744,235.846,0,0,1
-295.3243,0.5129128,254.5148,0,0,1
-301.3643,0.09024811,274.5309,0,0,1
-299.2272,0.0741272,294.419,0,0,1
-296.7701,0.0741272,314.2675,0,0,1
-294.3131,0.0741272,334.116,0,0,1
-285.9561,0.3868608,350.7132,0,0,1
-361.4974,0.2701588,158.4897,0,0,1
-360.8461,0.179534,182.1929,0,0,1
-360.5195,0.0741272,206.2812,0,0,1
-345.4542,0.5458689,231.9838,0,0,1
-312.5422,1.739666,254.9194,0,0,1
-327.9916,1.013802,277.8271,0,0,1
-348.2343,0.07412815,305.5237,0,0,1
-345.1628,0.0741272,330.3344,0,0,1
-342.0916,0.0741272,355.1451,0,0,1
-339.0203,0.0741272,379.9557,0,0,1
-380.5154,2.179765,151.752,0,0,1
-375.3039,2.236756,178.388,0,0,1
-446.2928,0.07412815,191.7083,0,0,1
-354.4942,2.661264,231.3115,0,0,1
-338.7398,3.041042,255.535,1,0.92,0.016
-335.2481,3.059526,278.7253,0,0,1
-402.882,0.901475,317.9066,0,0,1
-425.8174,0.07412624,357.1125,0,0,1
-421.7224,0.07412815,390.1933,0,0,1
-417.6273,0.0741272,423.2742,0,0,1
-463.6036,3.234374,122.3153,1,0,0
-499.0929,2.472236,145.8092,1,0,0
-617.8397,0.07412624,162.5625,0,0,1
-362.439,4.975978,230.7207,0,0,1
-337.2207,5.415643,255.4993,1,0.92,0.016
-341.3597,5.274561,279.4819,0,0,1
-554.203,0.8712807,352.1953,0,0,1
-468.4121,2.527277,371.2542,1,0,0
-461.566,2.573541,407.7298,1,0,0
-569.8594,0.1797562,507.1658,0,0,1
-461.1035,6.677975,123.201,1,0,0
-492.659,6.334954,147.5025,1,0,0
-664.0695,4.62498,154.708,0,0,1
-389.6036,7.257945,228.7005,0,0,1
-337.2207,7.744885,255.4993,1,0.92,0.016
-349.3401,7.593931,280.4698,0,0,1
-615.972,4.842499,366.1918,0,0,1
-465.5605,6.330167,370.3074,1,0,0
-461.566,6.323834,407.7298,1,0,0
-644.8499,4.331948,548.4913,0,0,1
-459.5725,10.07413,123.7434,1,0,0
-487.891,10.07413,148.7574,1,0,0
-668.8207,10.07413,153.9007,0,0,1
-681.2318,10.07413,207.0125,0,0,1
-337.2207,10.07413,255.4993,1,0.92,0.016
-693.0034,10.07413,323.0119,0,0,1
-681.9138,10.07413,381.1339,0,0,1
-463.3906,10.07413,369.587,1,0,0
-461.566,10.07413,407.7298,1,0,0
-649.9064,10.07413,551.2779,0,0,1
-461.5447,13.47448,123.0447,1,0,0
-484.2903,13.73296,149.705,1,0,0
-673.0554,15.61058,153.1813,0,0,1
-684.0856,15.78592,206.8003,0,0,1
-337.9519,12.41065,255.5165,1,0.92,0.016
-696.1708,16.0491,323.4041,0,0,1
-685.0889,16.01093,381.8533,0,0,1
-464.8929,13.8112,370.0858,1,0,0
-458.7927,13.7954,406.5091,1,0,0
-654.3145,15.91664,553.7072,0,0,1
-460.4221,16.85351,123.4424,1,0,0
-482.9721,17.36648,150.0519,1,0,0
-678.2121,21.24723,152.3052,0,0,1
-686.6772,21.54867,206.6075,0,0,1
-339.516,14.77831,255.5533,1,0.92,0.016
-699.2878,22.08689,323.7899,0,0,1
-688.0343,22.00784,382.5208,0,0,1
-464.8193,17.54674,370.0613,1,0,0
-461.566,17.57472,407.7298,1,0,0
-659.7653,21.87473,556.7109,0,0,1
-454.9949,20.08871,125.3652,1,0,0
-482.2914,20.99304,150.2311,1,0,0
-689.2646,27.36226,206.4151,0,0,1
-343.2916,17.24313,255.642,1,0.92,0.016
-702.7787,28.1988,324.222,0,0,1
-691.1682,28.07061,383.2309,0,0,1
-464.7458,21.28077,370.037,1,0,0
-461.566,21.32502,407.7298,1,0,0
-455.9945,23.46483,125.0111,1,0,0
-482.1288,24.62643,150.2739,1,0,0
-692.1165,33.23714,206.203,0,0,1
-340.4916,19.52132,255.5762,1,0.92,0.016
-710.2571,34.54178,325.1478,0,0,1
-695.2239,34.23495,384.1499,0,0,1
-460.165,24.82699,368.5161,1,0,0
-459.409,24.98502,406.7804,1,0,0
-301.172,1.201757,237.1051,0,0,1
-300.298,0.9225512,253.5675,0,0,1
-306.553,0.2790728,271.8727,0,0,1
-303.0453,0.0741272,290.7624,0,0,1
-295.2826,0.0741272,309.1945,0,0,1
-287.52,0.0741272,327.6266,0,0,1
-278.8104,0.127758,345.5435,0,0,1
-270.2668,0.1764879,363.3188,0,0,1
-264.232,0.0741272,382.9228,0,0,1
-256.4694,0.0741272,401.3549,0,0,1
-347.8854,1.301422,234.0624,0,0,1
-329.9426,1.65171,254.1041,0,0,1
-329.963,1.336006,274.3906,0,0,1
-353.0068,0.0741272,300.953,0,0,1
-343.3035,0.07412815,323.9931,0,0,1
-333.6002,0.07412624,347.0332,0,0,1
-307.7913,0.8038845,361.3109,0,0,1
-288.3844,1.297339,375.6075,0,0,1
-280.3405,1.273872,396.2193,0,0,1
-280.1225,0.8395414,424.7124,0,0,1
-354.26,3.323185,233.6472,0,0,1
-337.8874,3.535985,254.2479,1,0.92,0.016
-336.7353,3.324812,275.1191,0,0,1
-402.3099,1.093892,311.0093,0,0,1
-423.3382,0.0741272,348.6575,0,0,1
-410.4005,0.0741272,379.3775,0,0,1
-397.4626,0.07412624,410.0977,0,0,1
-293.3174,3.316191,378.9535,0,0,1
-286.6956,3.237147,401.4651,0,0,1
-286.1609,2.911803,430.6754,0,0,1
-360.353,5.464273,233.2503,0,0,1
-336.6934,5.737542,254.2263,1,0.92,0.016
-342.76,5.458506,275.7671,0,0,1
-546.6166,1.198947,340.4434,0,0,1
-474.8458,2.334859,364.5304,1,0,0
-461.566,2.297106,400.9257,1,0,0
-544.5944,0.0741272,490.1465,0,0,1
-297.1956,5.476934,381.5839,0,0,1
-420.9264,2.181897,512.2643,0,0,0
-292.1656,5.142538,436.6049,0,0,1
-369.4855,7.687344,232.6555,0,0,1
-336.6934,7.905835,254.2263,1,0.92,0.016
-350.2227,7.694425,276.5698,0,0,1
-632.593,4.776111,357.9799,0,0,1
-471.1015,6.243476,363.3766,1,0,0
-461.566,6.185618,400.9257,1,0,0
-645.6417,3.929493,545.1225,0,0,1
-304.7063,7.686538,386.6784,0,0,1
-422.893,6.103587,513.8876,0,0,0
-557.4796,4.146287,698.6035,0,0,1
-683.7798,10.07413,212.1839,0,0,1
-336.6934,10.07413,254.2263,1,0.92,0.016
-691.3019,10.07413,313.2561,0,0,1
-688.0969,10.07413,369.301,0,0,1
-468.2769,10.07413,362.5061,1,0,0
-461.566,10.07413,400.9257,1,0,0
-651.1438,10.07413,548.1161,0,0,1
-631.2026,10.07413,608.1346,0,0,1
-420.9778,10.07412,512.3066,0,0,0
-686.4165,15.30163,212.0122,0,0,1
-337.3159,12.2482,254.2375,1,0.92,0.016
-694.3412,15.7689,313.583,0,0,1
-691.3949,15.96062,369.9737,0,0,1
-465.2997,13.84433,361.5886,1,0,0
-461.566,13.96264,400.9257,1,0,0
-655.9645,16.3357,550.7388,0,0,1
-635.7605,16.38427,611.226,0,0,1
-429.2477,14.1236,519.1329,0,0,0
-688.8584,20.57292,211.8531,0,0,1
-338.7666,14.44922,254.2638,1,0.92,0.016
-697.2872,21.52043,313.8999,0,0,1
-694.6462,21.91218,370.6369,0,0,1
-464.1945,17.59163,361.248,1,0,0
-461.566,17.85116,400.9257,1,0,0
-442.8143,18.51007,530.3314,0,0,0
-691.3095,25.88822,211.6935,0,0,1
-340.2355,16.67769,254.2904,1,0.92,0.016
-700.4794,27.33584,314.2433,0,0,1
-698.4377,27.94504,371.4102,0,0,1
-464.7927,21.36902,361.4323,1,0,0
-461.566,21.73967,400.9257,1,0,0
-693.9687,31.25492,211.5203,0,0,1
-339.94,18.8679,254.285,1,0.92,0.016
-705.0988,33.26774,314.7401,0,0,1
-464.6888,25.12966,361.4003,1,0,0
-461.566,25.62818,400.9257,1,0,0
-323.4669,0.0741272,288.4991,0,0,1
-311.5762,0.0741272,304.5805,0,0,1
-299.6856,0.0741272,320.662,0,0,1
-287.7949,0.0741272,336.7434,0,0,1
-274.5399,0.1531296,352.0125,0,0,1
-264.0137,0.0741272,368.9063,0,0,1
-252.123,0.0741272,384.9878,0,0,1
-240.2324,0.0741272,401.0692,0,0,1
-228.3417,0.0741272,417.1507,0,0,1
-216.4512,0.0741272,433.2321,0,0,1
-349.2866,1.136368,293.012,0,0,1
-363.6705,0.0741272,318.2257,0,0,1
-348.8072,0.07412624,338.3275,0,0,1
-333.9439,0.0741272,358.4293,0,0,1
-293.7507,1.247449,363.4503,0,0,1
-282.7776,1.140679,382.7804,0,0,1
-284.0661,0.3581858,413.9417,0,0,1
-270.8622,0.2859621,434.8363,0,0,1
-259.6274,0.0741272,458.9384,0,0,1
-244.7642,0.0741272,479.0402,0,0,1
-408.1542,1.767277,303.3011,0,0,1
-450.4941,0.07412815,340.9676,0,0,1
-430.6765,0.0741272,367.77,0,0,1
-410.8588,0.0741272,394.5724,0,0,1
-391.0411,0.07412624,421.3748,0,0,1
-287.2728,3.206331,386.104,0,0,1
-296.3344,2.292891,425.062,0,0,1
-331.5878,0.07412815,501.7821,0,0,1
-307.593,0.2744007,523.0051,0,0,1
-291.9524,0.0741272,555.3869,0,0,1
-535.9032,2.216339,325.6295,0,0,1
-500.1936,2.453434,353.9853,1,0,0
-462.9519,2.750414,379.3769,1,0,0
-462.0866,2.297417,418.6447,1,0,0
-534.9619,0.0741272,507.0622,0,0,1
-291.0767,5.400979,388.9167,0,0,1
-475.5088,0.0741272,587.4695,0,0,1
-343.3715,3.063499,514.7725,1,0.92,0.016
-309.2838,3.486932,525.2635,0,0,1
-386.329,0.0741272,708.0803,0,0,1
-553.6759,5.98386,328.7358,0,0,1
-493.7238,6.325881,352.2906,1,0,0
-460.245,6.439825,378.4035,1,0,0
-458.4329,6.225357,416.9278,1,0,0
-639.7141,3.861052,569.4294,0,0,1
-295.371,7.684146,392.0919,0,0,1
-576.1914,3.721991,678.7305,0,0,1
-342.3891,6.583151,513.6896,1,0.92,0.016
-467.6368,4.249768,736.7728,0,0,1
-404.3623,4.755664,737.2567,0,0,1
-694.1924,10.07413,353.2957,0,0,1
-488.9333,10.07413,351.0358,1,0,0
-458.6681,10.07412,377.8364,1,0,0
-454.9302,10.07415,415.2819,1,0,0
-644.6796,10.07413,572.3857,0,0,1
-454.7532,10.07413,509.9391,0,0,0
-584.4982,10.07413,686.2599,0,0,1
-342.3891,10.07413,513.6896,1,0.92,0.016
-473.8663,10.07413,745.0934,0,0,1
-407.7155,10.07413,742.6819,0,0,1
-696.9822,15.4656,353.7834,0,0,1
-485.3171,13.74169,350.0886,1,0,0
-459.6779,13.70266,378.1995,1,0,0
-454.0082,13.87497,414.8486,1,0,0
-648.8041,16.39247,574.8413,0,0,1
-456.394,14.46671,511.1523,0,0,0
-343.3707,13.57943,514.7717,1,0.92,0.016
-412.4427,15.53529,750.33,0,0,1
-699.7201,20.90678,354.2619,0,0,1
-483.4937,17.37425,349.611,1,0,0
-454.6018,17.22786,376.374,1,0,0
-453.0179,17.65434,414.3832,1,0,0
-653.4408,22.8182,577.6021,0,0,1
-459.1307,18.92735,513.1758,0,0,0
-344.902,17.12943,516.4598,1,0.92,0.016
-702.802,26.40706,354.8006,0,0,1
-482.8181,21.00487,349.4341,1,0,0
-454.4771,20.80091,376.3292,1,0,0
-450.9495,21.37722,413.4113,1,0,0
-343.7577,20.60698,515.1984,1,0.92,0.016
-707.5419,32.02352,355.629,0,0,1
-482.6599,24.64237,349.3926,1,0,0
-455.0403,24.39944,376.5317,1,0,0
-452.5065,25.21239,414.1429,1,0,0
-343.0851,24.07867,514.457,1,0.92,0.016
-309.7645,0.0741272,335.6198,0,0,1
-290.5375,0.2890549,346.5985,0,0,1
-275.8623,0.28269,359.4886,0,0,1
-264.428,0.0741272,374.9211,0,0,1
-249.3157,0.0741272,388.0216,0,0,1
-234.2035,0.0741272,401.122,0,0,1
-219.0914,0.0741272,414.2225,0,0,1
-203.9791,0.0741272,427.3229,0,0,1
-188.8669,0.0741272,440.4233,0,0,1
-173.7548,0.07412815,453.5237,0,0,1
-361.4059,0.0741272,357.0248,0,0,1
-342.5156,0.0741272,373.4003,0,0,1
-292.1366,1.502668,369.8083,0,0,1
-281.3088,1.236514,388.0006,0,0,1
-281.8488,0.2929182,418.7523,0,0,1
-266.9382,0.07513046,438.8835,0,0,1
-248.0644,0.0741272,455.278,0,0,1
-229.1741,0.0741272,471.6536,0,0,1
-210.2839,0.07412624,488.0291,0,0,1
-191.3937,0.07412624,504.4047,0,0,1
-444.0427,0.1738202,391.2769,1,0,0
-422.2878,0.07412815,414.5338,0,0,1
-299.9101,3.38104,374.7376,0,0,1
-285.9028,3.274955,391.5601,0,0,1
-289.8968,2.407743,426.3544,0,0,1
-321.5398,0.0741272,501.87,0,0,1
-296.3528,0.07412624,523.704,0,0,1
-271.1658,0.0741272,545.5381,0,0,1
-245.9788,0.0741272,567.3722,0,0,1
-220.7917,0.0741272,589.2062,0,0,1
-461.566,3.134597,398.5403,1,0,0
-567.0414,0.3831472,489.174,0,0,1
-544.0516,0.07412815,529.5517,0,0,1
-289.9894,5.43996,394.7263,0,0,1
-299.0705,4.712071,435.0198,0,0,1
-330.8829,3.122182,512.648,0,0,1
-305.2993,3.098674,536.3815,0,0,1
-314.4857,1.688074,621.7598,0,0,1
-285.9056,1.543194,656.1221,0,0,1
-279.1668,0.09800816,757.5942,0,0,1
-461.566,6.604364,398.5402,1,0,0
-651.8788,4.34239,532.9193,0,0,1
-637.4518,4.014814,588.7783,0,0,1
-437.6466,5.925395,509.1319,0,0,0
-567.9478,3.712786,689.0012,0,0,1
-336.4877,6.512589,519.1135,1,0.92,0.016
-439.102,4.27731,725.9838,0,0,1
-381.329,4.554581,739.371,0,0,1
-324.2844,4.91267,741.4309,0,0,1
-282.869,4.981123,768.2737,0,0,1
-461.566,10.07413,398.5402,1,0,0
-474.1058,10.07413,441.2528,1,0,0
-642.1084,10.07413,591.7312,0,0,1
-437.5567,10.07412,509.0623,0,0,0
-336.4877,10.07413,519.1134,1,0.92,0.016
-444.2659,10.07413,733.3011,0,0,1
-387.7967,10.07413,750.7508,0,0,1
-326.0384,10.07413,745.3297,0,0,1
-284.2114,10.07413,772.1459,0,0,1
-461.566,13.5439,398.5402,1,0,0
-465.197,13.85571,436.6591,1,0,0
-646.5591,16.23673,594.5534,0,0,1
-439.7544,14.24901,510.765,0,0,0
-337.527,13.65153,520.3123,1,0.92,0.016
-327.5945,15.31286,748.7888,0,0,1
-285.2866,15.23566,775.247,0,0,1
-461.566,17.01366,398.5403,1,0,0
-464.3432,17.61946,436.2188,1,0,0
-443.3629,18.51341,513.561,0,0,0
-339.1324,17.27795,522.1641,1,0.92,0.016
-329.3126,20.63182,752.6077,0,0,1
-286.3291,20.4563,778.2545,0,0,1
-461.566,20.48343,398.5402,1,0,0
-460.3188,21.26601,434.1437,1,0,0
-448.679,22.93085,517.6799,0,0,0
-337.7978,20.81874,520.6246,1,0.92,0.016
-287.5188,25.74855,781.6861,0,0,1
-461.566,23.95319,398.5403,1,0,0
-462.6385,25.09356,435.3399,1,0,0
-337.2021,24.3639,519.9374,1,0.92,0.016
-280.4174,0.4856167,370.6793,0,0,1
-270.561,0.0741272,385.6098,0,0,1
-253.0994,0.0741272,395.3614,0,0,1
-235.6378,0.0741272,405.1129,0,0,1
-218.1762,0.0741272,414.8644,0,0,1
-200.7147,0.0741272,424.616,0,0,1
-183.2531,0.0741272,434.3675,0,0,1
-165.7914,0.0741272,444.1191,0,0,1
-148.3298,0.0741272,453.8706,0,0,1
-130.8682,0.0741272,463.6222,0,0,1
-289.9301,1.991565,377.1572,0,0,1
-281.248,1.563285,394.2692,0,0,1
-280.7922,0.5962,422.2155,0,0,1
-268.1459,0.1104689,443.1865,0,0,1
-246.9205,0.07412815,456.0806,0,0,1
-225.0934,0.0741272,468.27,0,0,1
-203.2665,0.0741272,480.4594,0,0,1
-181.4395,0.0741272,492.6488,0,0,1
-159.5103,0.09224415,504.3766,0,0,1
-132.4585,1.614333,475.9,0,0,1
-294.213,3.873168,380.0737,0,0,1
-286.4221,3.505499,398.4618,0,0,1
-287.5154,2.696568,428.7353,0,0,1
-323.4106,0.09766769,507.9129,0,0,1
-294.8276,0.0741272,524.774,0,0,1
-265.725,0.0741272,541.0267,0,0,1
-236.6223,0.07412624,557.2792,0,0,1
-207.5196,0.0741272,573.5317,0,0,1
-172.9054,0.8068672,564.887,1,0,0
-133.1587,3.57744,481.3061,0,0,1
-297.6584,5.865588,382.4199,0,0,1
-424.8316,2.387023,510.6118,0,0,0
-294.0828,4.98051,435.1038,0,0,1
-327.8658,3.288596,513.1309,0,0,1
-305.1581,3.048069,539.5869,0,0,1
-309.9351,1.593994,620.1917,0,0,1
-288.6014,0.8102484,676.9896,0,0,1
-259.6798,0.07412815,735.2977,0,0,1
-172.5076,3.931215,563.0898,1,0,0
-133.9948,5.62214,487.7608,0,0,1
-305.5797,7.88414,387.814,0,0,1
-427.1237,6.203181,512.469,0,0,0
-562.0558,3.951967,694.9628,0,0,1
-335.3399,6.568493,521.8845,1,0.92,0.016
-435.5243,4.293407,726.5176,0,0,1
-371.7241,4.566797,730.834,0,0,1
-317.8232,4.712135,744.2886,0,0,1
-272.6025,4.661209,775.3753,0,0,1
-171.8168,7.033284,559.9694,1,0,0
-143.5543,7.157146,561.566,1,0,0
-630.4612,10.07413,609.0469,0,0,1
-425.0743,10.07412,510.8085,0,0,0
-335.3399,10.07413,521.8846,1,0.92,0.016
-439.6799,10.07413,732.4764,0,0,1
-383.8691,10.07413,752.5816,0,0,1
-319.5505,10.07413,748.2665,0,0,1
-274.0847,10.07413,779.972,0,0,1
-171.4366,10.07413,558.252,1,0,0
-143.5543,10.07413,561.566,1,0,0
-634.597,15.82446,611.8632,0,0,1
-427.069,13.94442,512.4248,0,0,0
-336.3492,13.595,523.0666,1,0.92,0.016
-321.0457,15.51663,751.71,0,0,1
-275.2567,15.57185,783.6067,0,0,1
-170.5618,13.05934,554.2999,1,0,0
-143.1781,12.96392,558.6615,1,0,0
-442.4647,18.18267,524.8995,0,0,0
-339.5707,17.21318,526.8397,1,0.92,0.016
-322.6391,21.03874,755.3798,0,0,1
-276.4079,21.14315,787.1769,0,0,1
-170.6252,16.05021,554.5865,1,0,0
-143.5543,15.90809,561.566,1,0,0
-446.1467,22.36896,527.883,0,0,0
-336.7169,20.65341,523.4973,1,0.92,0.016
-277.8688,26.8177,791.7077,0,0,1
-170.4649,19.01692,553.8622,1,0,0
-143.5543,18.82508,561.566,1,0,0
-336.0507,24.1396,522.717,1,0.92,0.016
-170.4201,21.98991,553.6598,1,0,0
-143.5543,21.74206,561.566,1,0,0
-247.9624,0.0741272,420.4219,0,0,1
-228.5381,0.0741272,425.1861,0,0,1
-209.1138,0.0741272,429.9502,0,0,1
-189.6896,0.0741272,434.7144,0,0,1
-170.2653,0.0741272,439.4786,0,0,1
-150.841,0.0741272,444.2428,0,0,1
-131.4167,0.0741272,449.007,0,0,1
-111.9924,0.0741272,453.7712,0,0,1
-92.56818,0.0741272,458.5354,0,0,1
-74.52032,0.5321035,453.5309,0,0,1
-284.1532,0.07412624,463.0274,0,0,1
-259.8729,0.0741272,468.9826,0,0,1
-235.5925,0.07412624,474.9379,0,0,1
-211.3122,0.0741272,480.893,0,0,1
-187.0318,0.07412815,486.8483,0,0,1
-162.7514,0.0741272,492.8035,0,0,1
-134.8722,1.094465,473.3769,0,0,1
-114.1907,0.0741272,504.7139,0,0,1
-89.9104,0.0741272,510.6692,0,0,1
-65.63,0.0741272,516.6245,0,0,1
-323.5701,0.9404173,509.4306,0,0,1
-304.4327,0.4410362,531.2639,0,0,1
-279.7236,0.0741272,549.9171,0,0,1
-247.3498,0.0741272,557.8574,0,0,1
-214.976,0.07412624,565.7977,0,0,1
-181.851,0.1687318,570.6754,1,0,0
-135.2363,3.261945,475.9453,0,0,1
-117.0674,0.6112998,571.3752,1,0,0
-85.48077,0.07412815,597.5589,0,0,1
-53.10699,0.0741272,605.4992,0,0,1
-327.3928,3.879361,513.9309,0,0,1
-306.066,3.599944,533.5467,0,0,1
-330.7086,1.481949,636.5411,0,0,1
-286.3153,1.605386,641.0746,0,0,1
-270.8644,0.0741272,723.6966,0,0,1
-181.5174,3.498545,569.3149,1,0,0
-136.8889,5.298421,487.5997,0,0,1
-117.008,3.792595,569.9988,1,0,0
-76.62158,0.07412815,771.3383,0,0,1
-28.06091,0.0741272,783.2488,0,0,1
-334.9495,6.872344,522.8271,1,0.92,0.016
-444.1821,4.633152,726.5915,0,0,1
-391.813,4.624197,740.3582,0,0,1
-331.7552,4.789007,738.1191,0,0,1
-285.7221,4.631051,765.6733,0,0,1
-180.6592,6.822362,565.816,1,0,0
-147.3767,6.942921,561.566,1,0,0
-116.8914,6.959888,567.2961,1,0,0
-334.9495,10.07413,522.8271,1,0.92,0.016
-456.714,10.07413,744.1071,0,0,1
-395.955,10.07413,747.3956,0,0,1
-333.597,10.07413,742.0526,0,0,1
-287.1533,10.07413,769.7167,0,0,1
-180.0074,10.07413,563.1583,1,0,0
-147.3767,10.07413,561.566,1,0,0
-116.7932,10.07413,565.0223,1,0,0
-335.822,13.28797,523.8543,1,0.92,0.016
-335.2866,15.44091,745.6608,0,0,1
-288.3217,15.59473,773.0179,0,0,1
-180.5333,13.32061,565.3027,1,0,0
-147.3767,13.20534,561.566,1,0,0
-116.9284,13.19678,568.1537,1,0,0
-339.9626,16.61621,528.7288,1,0.92,0.016
-337.2609,20.899,749.8773,0,0,1
-289.45,21.18262,776.2053,0,0,1
-180.5108,16.56519,565.2107,1,0,0
-147.3767,16.33654,561.566,1,0,0
-116.8766,16.29589,566.9542,1,0,0
-338.2484,19.81621,526.7108,1,0.92,0.016
-290.7547,26.8536,779.8918,0,0,1
-180.4882,19.80789,565.1187,1,0,0
-147.3767,19.46775,561.566,1,0,0
-116.8429,19.38375,566.1721,1,0,0
-335.6591,22.92048,523.6625,1,0.92,0.016
-178.3066,22.68614,556.224,1,0,0
-147.3767,22.59896,561.566,1,0,0
-116.5603,22.22993,559.6253,1,0,0
-196.9094,0.0741272,453.0232,0,0,1
-176.9191,0.0741272,452.3991,0,0,1
-156.9288,0.0741272,451.775,0,0,1
-136.9385,0.0741272,451.1508,0,0,1
-116.9483,0.0741272,450.5268,0,0,1
-96.95801,0.0741272,449.9026,0,0,1
-77.24426,0.1795282,447.1781,0,0,1
-57.10254,0.1011772,448.117,0,0,1
-36.98724,0.0741272,448.0303,0,0,1
-16.99701,0.0741272,447.4062,0,0,1
-220.3369,0.07412624,503.7791,0,0,1
-195.3491,0.07412624,502.9989,0,0,1
-170.3613,0.0741272,502.2187,0,0,1
-140.4877,1.232595,472.3102,0,0,1
-120.3856,0.07412815,500.6584,0,0,1
-95.39777,0.0741272,499.8782,0,0,1
-74.80432,1.414305,465.7145,0,0,1
-45.42212,0.0741272,498.318,0,0,1
-20.43427,0.07412624,497.5378,0,0,1
4.553483,0.0741272,496.7577,0,0,1
-259.3828,0.07412815,588.372,0,0,1
-226.0657,0.0741272,587.3318,0,0,1
-192.7142,0.07797605,586.1622,1,0,0
-141.2241,3.312007,476.701,0,0,1
-124.8874,0.6095985,566.3152,1,0,0
-92.7973,0.0741272,583.171,0,0,1
-59.48016,0.07412624,582.1308,0,0,1
-26.16309,0.0741272,581.0906,0,0,1
7.153951,0.0741272,580.0505,0,0,1
40.47105,0.0741272,579.0103,0,0,1
-298.6191,1.732669,673.3773,0,0,1
-287.1688,0.09204292,755.0911,0,0,1
-191.934,3.468109,583.2322,1,0,0
-155.4588,3.878457,561.566,1,0,0
-124.7947,3.791406,564.9634,1,0,0
-87.59644,0.0741272,749.7565,0,0,1
-37.62073,0.0741272,748.1962,0,0,1
12.35487,0.0741272,746.636,0,0,1
62.33054,0.0741272,745.0756,0,0,1
112.3062,0.0741272,743.5154,0,0,1
-329.2182,5.250339,739.6704,0,0,1
-289.9504,5.007622,762.728,0,0,1
-189.8574,6.848412,575.4339,1,0,0
-155.4588,6.976294,561.566,1,0,0
-124.6125,6.959274,562.3057,1,0,0
-85.31476,4.342957,822.8379,0,0,1
-330.8679,10.07413,743.2445,0,0,1
-291.2949,10.07413,766.4196,0,0,1
-188.2736,10.07413,569.486,1,0,0
-155.4588,10.07413,561.566,1,0,0
-124.4943,10.07413,560.5814,1,0,0
-332.3652,14.96508,746.4883,0,0,1
-292.3652,15.20615,769.3582,0,0,1
-187.009,13.19381,564.7371,1,0,0
-155.4588,13.17196,561.566,1,0,0
-124.6702,13.19738,563.1475,1,0,0
-334.0208,19.9267,750.075,0,0,1
-293.4344,20.39618,772.2935,0,0,1
-186.9059,16.30581,564.3498,1,0,0
-155.4588,16.2698,561.566,1,0,0
-124.5793,16.29418,561.8216,1,0,0
-294.5884,25.65113,775.4617,0,0,1
-186.3339,19.3578,562.2016,1,0,0
-155.4588,19.36763,561.566,1,0,0
-124.5429,19.38829,561.2899,1,0,0
-296.3063,31.02989,780.1785,0,0,1
-186.6734,22.5029,563.4768,1,0,0
-155.4588,22.46547,561.566,1,0,0
-124.0992,22.23484,554.8186,1,0,0
-156.6082,0.0741272,467.1347,0,0,1
-137.1011,0.0741272,462.7221,0,0,1
-117.5939,0.0741272,458.3094,0,0,1
-98.08679,0.0741272,453.8967,0,0,1
-78.83533,0.1779718,447.4125,0,0,1
-59.07251,0.0741272,445.0714,0,0,1
-39.56531,0.0741272,440.6588,0,0,1
-20.05823,0.0741272,436.246,0,0,1
-0.5510864,0.0741272,431.8334,0,0,1
18.95603,0.0741272,427.4207,0,0,1
-169.9604,0.07412624,521.4185,0,0,1
-138.7617,1.682259,473.142,0,0,1
-121.0188,0.1706915,507.8723,0,0,1
-96.80865,0.0741272,504.8709,0,0,1
-76.21344,1.30526,468.6562,0,0,1
-48.04077,0.07412815,493.8392,0,0,1
-23.65692,0.07412815,488.3234,0,0,1
0.7269801,0.07412726,482.8076,0,0,1
25.1109,0.0741272,477.2917,0,0,1
48.00183,0.171905,469.6075,0,0,1
-182.1189,1.208241,570.8487,1,0,0
-139.2688,3.690472,476.324,0,0,1
-125.0502,0.9662374,566.2098,1,0,0
-94.67853,0.07412624,589.8279,0,0,1
-62.16663,0.0741272,582.4734,0,0,1
-29.65466,0.07412624,575.119,0,0,1
2.85715,0.07412708,567.7645,0,0,1
35.36904,0.0741272,560.4101,0,0,1
67.88094,0.07412767,553.0557,0,0,1
100.3928,0.0741272,545.7012,0,0,1
-181.5951,4.202764,568.7192,1,0,0
-152.854,4.215477,561.566,1,0,0
-124.9422,4.032202,564.6475,1,0,0
-90.41815,0.07412624,759.7418,0,0,1
-41.65027,0.0741272,748.7101,0,0,1
7.117479,0.0741272,737.6784,0,0,1
55.88535,0.0741272,726.6468,0,0,1
104.6532,0.07412672,715.6152,0,0,1
153.421,0.0741272,704.5834,0,0,1
202.1889,0.0741272,693.5518,0,0,1
-180.8474,7.166445,565.6794,1,0,0
-152.854,7.144803,561.566,1,0,0
-124.7673,7.077461,562.1169,1,0,0
-88.97559,4.509788,817.2751,0,0,1
252.872,3.136418,880.7535,0,0,1
265.0414,4.045068,784.84,0,0,1
-180.2634,10.07413,563.3049,1,0,0
-152.854,10.07413,561.566,1,0,0
-124.6549,10.07413,560.4894,1,0,0
-180.7988,12.97999,565.4816,1,0,0
-152.854,13.00345,561.566,1,0,0
-124.8351,13.08021,563.0972,1,0,0
-180.7785,15.88433,565.3991,1,0,0
-152.854,15.93278,561.566,1,0,0
-124.7458,16.06149,561.806,1,0,0
-180.4974,18.75785,564.2565,1,0,0
-152.854,18.8621,561.566,1,0,0
-124.6984,19.03542,561.1202,1,0,0
-180.2566,21.61636,563.2775,1,0,0
-152.854,21.79143,561.566,1,0,0
-124.2622,21.78008,554.8075,1,0,0
-97.99622,0.0741272,473.5463,0,0,1
-81.41162,0.5510101,453.9739,0,0,1
-63.72742,0.3410234,449.3633,0,0,1
-44.96948,0.0741272,445.472,0,0,1
-27.29382,0.0741272,436.114,0,0,1
-9.618286,0.0741272,426.7559,0,0,1
8.05725,0.0741272,417.3978,0,0,1
25.73282,0.0741272,408.0397,0,0,1
43.40843,0.07412696,398.6816,0,0,1
61.08401,0.0741272,389.3235,0,0,1
-96.6955,0.0741272,529.4328,0,0,1
-74.60101,0.07412624,517.7352,0,0,1
-52.50647,0.07412624,506.0377,0,0,1
-30.41199,0.0741272,494.34,0,0,1
-8.317566,0.07412815,482.6424,0,0,1
13.77686,0.0741272,470.9448,0,0,1
35.87135,0.0741272,459.2472,0,0,1
57.76615,0.08651733,447.3048,0,0,1
80.06031,0.0741272,435.852,0,0,1
102.1548,0.0741272,424.1543,0,0,1
-94.52759,0.0741272,622.5771,0,0,1
-65.0683,0.0741272,606.9802,0,0,1
-35.60895,0.07412815,591.3835,0,0,1
-6.149658,0.07412815,575.7866,0,0,1
23.3096,0.0741272,560.1899,0,0,1
52.76891,0.07412672,544.5931,0,0,1
82.22821,0.0741272,528.9962,0,0,1
70.14884,2.007176,462.483,0,0,1
126.58,0.6702814,483.0298,0,0,1
39.41212,4.865629,370.9443,1,0,1
-90.33594,0.1849527,802.6719,0,0,1
-46.00281,0.07412624,785.4704,0,0,1
-1.813904,0.0741272,762.0753,0,0,1
42.37506,0.0741272,738.68,0,0,1
86.564,0.0741272,715.2849,0,0,1
130.7529,0.0741272,691.8895,0,0,1
174.9419,0.07412672,668.4944,0,0,1
219.1309,0.0741272,645.0992,0,0,1
128.972,3.739634,485.4556,0,0,1
39.10778,6.609207,370.6862,1,0,1
-90.00574,5.00261,816.8593,0,0,1
240.5185,2.728231,899.215,0,0,1
130.9551,6.879827,487.4668,0,0,1
40.08267,8.329799,371.5129,1,0,1
42.66794,10.07413,373.7054,1,0,1
43.4239,11.85913,374.3465,1,0,1
43.73781,13.65178,374.6128,1,0,1
39.34211,15.28007,370.8849,1,0,1
-94.95918,22.7439,604.035,1,0,0
39.49343,17.02273,371.0132,1,0,1
-60.70215,0.7211962,454.7747,0,0,1
-42.06421,0.0741272,456.5491,0,0,1
-26.36633,0.0741272,444.1565,0,0,1
-10.66852,0.0741272,431.7638,0,0,1
5.029318,0.07412708,419.3712,0,0,1
20.72716,0.0741272,406.9785,0,0,1
36.425,0.0741272,394.5859,0,0,1
52.12286,0.0741272,382.1933,0,0,1
67.82071,0.0741272,369.8006,0,0,1
83.51858,0.0741272,357.408,0,0,1
-46.40277,0.0741272,523.6772,0,0,1
-26.7804,0.07412624,508.1864,0,0,1
-7.158142,0.0741272,492.6956,0,0,1
12.46412,0.07412708,477.2047,0,0,1
32.08644,0.0741272,461.714,0,0,1
51.70875,0.0741272,446.2231,0,0,1
71.33107,0.0741272,430.7324,0,0,1
90.95338,0.0741272,415.2416,0,0,1
102.9441,0.4311447,394.4048,1,0,1
130.198,0.0741272,384.26,0,0,1
-27.47064,0.0741272,614.9028,0,0,1
-1.307556,0.0741272,594.2485,0,0,1
24.85548,0.07412744,573.5941,0,0,1
51.01857,0.0741272,552.9396,0,0,1
77.18166,0.07412672,532.2853,0,0,1
67.71918,1.798969,466.5037,0,0,1
125.3399,0.2532339,486.6604,0,0,1
155.6709,0.07412672,470.3221,0,0,1
102.6598,2.851887,394.2056,1,0,1
207.9971,0.0741272,429.0133,0,0,1
10.39357,0.0741272,797.3544,0,0,1
49.6382,0.07412744,766.3727,0,0,1
88.88282,0.0741272,735.3911,0,0,1
128.1275,0.0741272,704.4095,0,0,1
167.3721,0.07412672,673.4279,0,0,1
206.6167,0.07412767,642.4463,0,0,1
128.2519,3.443441,489.6759,0,0,1
39.05518,6.410658,371.0715,1,0,1
102.3763,5.265919,394.007,1,0,1
363.5952,0.0741272,518.52,0,0,1
248.2462,2.477825,940.3663,0,0,1
299.381,3.57704,759.9516,0,0,1
132.5108,6.697779,494.0862,0,0,1
40.05749,8.229494,371.9245,1,0,1
102.0936,7.673309,393.809,1,0,1
625.5547,2.268188,669.2101,0,0,1
42.38885,10.07413,373.9088,1,0,1
101.8117,10.0741,393.6115,1,0,1
656.9515,10.07413,687.2709,0,0,1
43.15744,11.95868,374.5629,1,0,1
101.6687,12.46996,393.5113,1,0,1
663.5686,18.28725,691.0773,0,0,1
43.53168,13.85288,374.8814,1,0,1
101.7981,14.86883,393.602,1,0,1
669.6548,26.63075,694.5784,0,0,1
39.30219,15.57888,371.2817,1,0,1
101.9277,17.27073,393.6928,1,0,1
39.46217,17.42203,371.4178,1,0,1
102.0575,19.67566,393.7837,1,0,1
-20.10803,0.0741272,457.5955,0,0,1
-6.824036,0.0741272,442.6443,0,0,1
6.459918,0.0741272,427.6932,0,0,1
19.7439,0.0741272,412.7421,0,0,1
33.02789,0.0741272,397.791,0,0,1
46.31189,0.07412696,382.8399,0,0,1
59.59589,0.07412672,367.8888,0,0,1
72.87988,0.0741272,352.9377,0,0,1
86.16387,0.0741272,337.9866,0,0,1
99.44788,0.0741272,323.0355,0,0,1
0.6647949,0.07412624,509.4943,0,0,1
17.26971,0.0741272,490.8054,0,0,1
33.87471,0.0741272,472.1165,0,0,1
50.44306,0.07651019,453.3792,0,0,1
67.08469,0.0741272,434.7388,0,0,1
83.68965,0.07412767,416.0499,0,0,1
100.2947,0.0741272,397.361,0,0,1
116.8996,0.07412672,378.6721,0,0,1
133.5046,0.07412767,359.9832,0,0,1
150.1096,0.07412672,341.2943,0,0,1
35.28605,0.07412744,595.9924,0,0,1
57.42603,0.0741272,571.0739,0,0,1
79.56603,0.0741272,546.1554,0,0,1
65.82403,1.825276,473.7393,0,0,1
123.0883,0.1074996,495.4963,0,0,1
144.3317,0.1405115,469.9301,0,0,1
102.7579,2.483376,399.1447,1,0,1
190.2659,0.07412767,421.5628,0,0,1
212.4059,0.07412767,396.6443,0,0,1
234.5459,0.0741272,371.7258,0,0,1
104.5287,0.07412672,768.9886,0,0,1
137.7386,0.07412767,731.6108,0,0,1
170.9486,0.0741272,694.233,0,0,1
204.1586,0.0741272,656.8553,0,0,1
126.2519,3.336817,498.9285,0,0,1
41.55857,6.201296,378.6166,1,0,1
102.2786,5.025398,398.7977,1,0,1
334.5377,0.1300292,505.9056,0,0,1
262.8091,2.342773,420.0638,1,0,1
281.0205,2.490111,388.4755,0,0,1
243.3851,2.881727,942.7877,0,0,1
281.801,3.811065,759.632,0,0,1
292.2815,4.267931,679.0518,0,0,1
40.43746,8.152699,377.6205,1,0,1
101.8016,7.555649,398.4523,1,0,1
608.8273,1.986552,666.2582,0,0,1
263.5982,6.200157,420.4305,1,0,1
284.9579,6.243258,389.8946,0,0,1
40.85595,10.07413,377.9923,1,0,1
101.3268,10.07418,398.1085,1,0,1
655.9026,10.07413,693.7789,0,0,1
263.8824,10.07411,420.5625,1,0,1
287.977,10.07413,390.9827,0,0,1
101.1071,12.58411,397.9493,1,0,1
663.9771,18.78812,698.4993,0,0,1
264.167,13.95419,420.6948,1,0,1
290.7403,13.96206,391.9786,0,0,1
37.7804,13.84588,375.2597,1,0,1
53.67801,13.92872,363.6034,1,0,1
672.3879,27.69319,703.4164,0,0,1
264.4521,17.84019,420.8272,1,0,1
293.6809,17.90804,393.0385,0,0,1
38.58791,15.76417,375.9772,1,0,1
56.11786,15.94595,365.3702,1,0,1
264.9109,21.73775,421.0404,1,0,1
170.431,18.17581,348.6183,1,0,1
38.85386,17.67507,376.2135,1,0,1
57.07681,17.95031,366.0646,1,0,1
265.6869,25.65842,421.401,1,0,1
159.2581,20.43528,344.5915,1,0,1
20.34396,0.0741272,436.3789,0,0,1
30.31254,0.0741272,419.0403,0,0,1
40.28114,0.07412696,401.7017,0,0,1
50.24973,0.0741272,384.3631,0,0,1
60.2183,0.0741272,367.0245,0,0,1
70.18689,0.0741272,349.6859,0,0,1
80.15549,0.0741272,332.3472,0,0,1
90.12405,0.07412767,315.0086,0,0,1
100.0926,0.0741272,297.67,0,0,1
110.0612,0.0741272,280.3314,0,0,1
50.22278,0.1393328,481.4546,0,0,1
57.67262,0.4347167,453.6812,0,0,1
76.15122,0.0741272,439.6271,0,0,1
88.61194,0.07412767,417.9539,0,0,1
101.0727,0.07412672,396.2806,0,0,1
113.5334,0.0741272,374.6073,0,0,1
125.9942,0.0741272,352.9341,0,0,1
138.4549,0.0741272,331.2608,0,0,1
103.6042,1.935944,298.4935,1,0,1
163.3764,0.0741272,287.9143,0,0,1
102.706,0.07412767,560.6315,0,0,1
72.05202,2.198361,471.887,0,0,1
125.3263,0.5177431,491.6199,0,0,1
152.549,0.0741272,473.9385,0,0,1
102.0457,2.538414,396.9774,1,0,1
185.7776,0.0741272,416.1431,0,0,1
202.3919,0.07412672,387.2454,0,0,1
219.0062,0.07412672,358.3477,0,0,1
103.3306,3.978554,298.4293,1,0,1
252.2348,0.0741272,300.5523,0,0,1
205.6586,0.0741272,715.9473,0,0,1
230.5802,0.0741272,672.6008,0,0,1
127.567,3.640739,493.9889,0,0,1
40.4697,6.329065,375.7995,1,0,1
101.5716,5.06189,396.6379,1,0,1
330.266,0.0741272,499.2147,0,0,1
263.8577,2.066544,414.8506,1,0,1
283.3976,2.075155,380.0005,0,0,1
103.0576,6.015793,298.3653,1,0,1
398.9489,0.6556315,321.4191,0,0,1
300.7134,4.023534,761.3971,0,0,1
298.7919,4.470696,675.025,0,0,1
41.50502,8.188095,376.7061,1,0,1
101.2613,7.571812,396.4157,1,0,1
603.8128,1.918778,656.4865,0,0,1
265.6792,6.050507,415.6686,1,0,1
288.0187,6.026834,381.5545,0,0,1
102.7855,8.047638,298.3015,1,0,1
414.8972,5.215313,323.6873,0,0,1
41.97327,10.07413,377.1161,1,0,1
100.9686,10.07415,396.2061,1,0,1
657.0009,10.07413,687.0662,0,0,1
266.0189,10.07413,415.8212,1,0,1
291.8845,10.07413,382.8545,0,0,1
102.514,10.07413,298.2378,1,0,1
543.8634,10.07413,342.0298,0,0,1
100.8317,12.57118,396.108,1,0,1
664.0573,18.92439,691.1232,0,0,1
266.3593,14.10519,415.9741,1,0,1
295.1611,14.19531,383.9563,0,0,1
102.3279,12.09611,298.1942,1,0,1
548.5187,16.18606,342.6919,0,0,1
38.6069,13.77063,374.1684,1,0,1
100.966,15.07152,396.2042,1,0,1
670.9,27.93252,695.0573,0,0,1
266.7002,18.14376,416.1272,1,0,1
299.9914,18.41644,385.5805,0,0,1
102.4524,14.12054,298.2234,1,0,1
250.8883,16.71554,300.3608,1,0,1
38.77388,15.62543,374.3146,1,0,1
