-336.1067,4.762482,736.3489,0,0,1
-289.5203,4.627263,762.6563,0,0,1
-181.2214,6.803484,566.1935,1,0,0
-147.5207,6.934386,561.566,1,0,0
-117.0212,6.957767,567.2137,1,0,0
-335.9084,10.07413,520.512,1,0.92,0.016
-466.5201,10.07413,746.4807,0,0,1
-401.1613,10.07413,745.1193,0,0,1
-337.9937,10.07413,740.1966,0,0,1
-291.0112,10.07413,766.6387,0,0,1
-180.4921,10.07413,563.4358,1,0,0
-147.5207,10.07413,561.566,1,0,0
-116.8834,10.07413,564.9641,1,0,0
-336.8015,13.31072,521.5256,1,0.92,0.016
-339.7816,15.46761,743.8425,0,0,1
-292.1895,15.59675,769.7864,0,0,1
-181.0784,13.33918,565.6528,1,0,0
-147.5207,13.21387,561.566,1,0,0
-117.0728,13.19878,568.0573,1,0,0
-338.2592,16.58676,523.1804,1,0.92,0.016
-341.9821,20.95911,748.3295,0,0,1
-293.3738,21.18659,772.95,0,0,1
-181.0535,16.60228,565.5588,1,0,0
-147.5207,16.35361,561.566,1,0,0
-117.0002,16.30012,566.8712,1,0,0
-337.6736,19.81929,522.5155,1,0.92,0.016
-294.6962,26.85541,776.4822,0,0,1
-181.0287,19.86345,565.465,1,0,0
-147.5207,19.49335,561.566,1,0,0
-116.9531,19.39043,566.1014,1,0,0
-336.6265,23.01101,521.327,1,0.92,0.016
-178.6362,22.75225,556.4184,1,0,0
-147.5207,22.63309,561.566,1,0,0
-116.5565,22.24135,559.6249,1,0,0
-203.0952,0.0741272,447.1563,0,0,1
-183.1028,0.0741272,447.7097,0,0,1
-163.1105,0.0741272,448.2631,0,0,1
-143.1182,0.0741272,448.8166,0,0,1
-123.1258,0.0741272,449.37,0,0,1
-103.1334,0.0741272,449.9234,0,0,1
-83.29443,0.1801653,448.3511,0,0,1
-63.7262,0.2417307,447.661,0,0,1
-43.15643,0.0741272,451.5837,0,0,1
-23.16406,0.0741272,452.1372,0,0,1
-229.4692,0.07412624,496.4453,0,0,1
-204.4788,0.0741272,497.1371,0,0,1
-179.4883,0.07412624,497.8289,0,0,1
-154.1989,0.1266766,497.2147,0,0,1
-127.3615,0.746685,482.4516,0,0,1
-104.517,0.0741272,499.9042,0,0,1
-81.70441,1.279187,470.3977,0,0,1
-54.53619,0.0741272,501.2878,0,0,1
-29.54578,0.0741272,501.9797,0,0,1
-4.555359,0.0741272,502.6715,0,0,1
-273.4258,0.0741272,578.5938,0,0,1
-240.1053,0.0741272,579.5161,0,0,1
-206.7848,0.0741272,580.4385,0,0,1
-165.8457,1.078349,548.0848,1,0,0
-128.3295,2.851021,490.0117,0,0,1
-106.823,0.0741272,583.2057,0,0,1
-73.5025,0.0741272,584.1281,0,0,1
-40.18188,0.07412815,585.0505,0,0,1
-6.861328,0.0741272,585.9729,0,0,1
26.45921,0.07412696,586.8953,0,0,1
-350.4781,0.48594,722.5927,0,0,1
-284.1678,1.346148,681.4015,0,0,1
-261.3776,0.07412815,745.6577,0,0,1
-168.7468,3.822004,560.7564,1,0,0
-137.0597,3.890711,558.1968,1,0,0
-106.8786,3.367361,585.21,1,0,0
-61.45416,0.0741272,751.1921,0,0,1
-11.47327,0.07412815,752.5757,0,0,1
38.50754,0.0741272,753.9593,0,0,1
88.48838,0.0741272,755.343,0,0,1
-354.247,5.208582,729.6362,0,0,1
-312.7761,5.040967,747.5522,0,0,1
-271.518,4.76455,776.3466,0,0,1
-168.1761,6.97314,558.2639,1,0,0
-136.8222,7.001024,556.3422,1,0,0
-106.7556,6.765194,580.7666,1,0,0
-356.7728,10.07413,734.3565,0,0,1
-314.2645,10.07413,750.994,0,0,1
-272.9998,10.07413,780.8311,0,0,1
-167.8552,10.07413,556.8619,1,0,0
-136.5673,10.07413,554.3514,1,0,0
-106.6607,10.07413,577.3412,1,0,0
-359.6917,15.04289,739.8116,0,0,1
-315.5965,15.17326,754.0738,0,0,1
-274.1634,15.46447,784.3528,0,0,1
-167.443,13.1429,555.0616,1,0,0
-136.408,13.11477,553.1067,1,0,0
-106.5887,13.32275,574.7377,1,0,0
-316.9845,20.33733,757.2833,0,0,1
-275.3175,20.92527,787.8455,0,0,1
-167.1731,16.18797,553.883,1,0,0
-136.4212,16.15749,553.21,1,0,0
-106.5424,16.53797,573.0683,1,0,0
-318.7894,25.59558,761.4568,0,0,1
-276.758,26.48277,792.2048,0,0,1
-167.0151,19.22405,553.1926,1,0,0
-136.1808,19.14267,551.3325,1,0,0
-106.5094,19.73405,571.8741,1,0,0
-166.9712,22.26631,553.0009,1,0,0
-136.3167,22.20811,552.394,1,0,0
-106.497,22.93614,571.4271,1,0,0
-159.0942,0.0741272,464.9845,0,0,1
-139.4357,0.0741272,461.3048,0,0,1
-119.7772,0.0741272,457.625,0,0,1
-100.1186,0.0741272,453.9452,0,0,1
-80.65967,0.1906633,447.9316,0,0,1
-60.89105,0.09849548,446.1066,0,0,1
-41.14282,0.0741272,442.906,0,0,1
-21.48425,0.0741272,439.2261,0,0,1
-1.825684,0.0741272,435.5464,0,0,1
17.83285,0.0741272,431.8667,0,0,1
-174.468,0.0741272,518.7307,0,0,1
-141.7399,1.633505,472.943,0,0,1
-123.8002,0.6229277,495.2882,0,0,1
-100.7484,0.0741272,504.9315,0,0,1
-79.23486,1.502285,464.5805,0,0,1
-51.60199,0.0741272,495.7321,0,0,1
-27.02875,0.0741272,491.1324,0,0,1
-2.455566,0.0741272,486.5327,0,0,1
22.11762,0.0741272,481.933,0,0,1
46.69082,0.07412696,477.3333,0,0,1
-200.091,0.0741272,608.3076,0,0,1
-155.8172,1.724781,544.0428,1,0,0
-130.967,1.046854,562.3813,1,0,0
-101.7982,0.07412815,589.9087,0,0,1
-69.03394,0.0741272,583.7758,0,0,1
-36.26959,0.0741272,577.6428,0,0,1
-3.50531,0.07412624,571.5099,0,0,1
29.2589,0.0741272,565.377,0,0,1
62.02321,0.0741272,559.244,0,0,1
94.78746,0.0741272,553.1111,0,0,1
-193.4279,3.840874,585.0134,1,0,0
-159.2866,4.176182,561.566,1,0,0
-130.799,4.086249,560.8083,1,0,0
-103.8978,0.0741272,759.863,0,0,1
-54.75134,0.0741272,750.6636,0,0,1
-5.604919,0.07412815,741.4642,0,0,1
43.54151,0.07412696,732.2649,0,0,1
92.6879,0.0741272,723.0654,0,0,1
141.8344,0.0741272,713.866,0,0,1
190.9808,0.0741272,704.6666,0,0,1
-191.2444,7.028515,577.38,1,0,0
-159.2866,7.125154,561.566,1,0,0
-130.5604,7.101705,558.5748,1,0,0
-101.8583,6.693131,594.7691,1,0,0
240.1715,3.02059,904.3793,0,0,1
-189.5546,10.07413,571.4724,1,0,0
-159.2866,10.07413,561.566,1,0,0
-130.4298,10.07413,557.3522,1,0,0
-101.7421,10.07413,585.3638,1,0,0
-187.79,13.00741,565.3036,1,0,0
-159.2866,13.0231,561.566,1,0,0
-130.2445,13.01807,555.6177,1,0,0
-101.7045,13.33308,582.3235,1,0,0
-187.3772,15.9138,563.8603,1,0,0
-159.2866,15.97207,561.566,1,0,0
-130.1218,15.93987,554.4689,1,0,0
-101.6837,16.55895,580.6372,1,0,0
-187.079,18.80455,562.818,1,0,0
-159.2866,18.92105,561.566,1,0,0
-130.0479,18.85275,553.7768,1,0,0
-101.6691,19.76665,579.4575,1,0,0
-187.4246,21.75966,564.0262,1,0,0
-159.2808,21.8689,561.5364,1,0,0
-130.028,21.77179,553.5909,1,0,0
-101.664,22.98134,579.0454,1,0,0
-117.3312,0.0741272,472.7345,0,0,1
-98.72314,0.0741272,465.4037,0,0,1
-80.65778,0.3844995,451.6149,0,0,1
-62.03107,0.2193155,447.8275,0,0,1
-42.89905,0.0741272,443.4113,0,0,1
-24.29095,0.0741272,436.0804,0,0,1
-5.682922,0.0741272,428.7497,0,0,1
12.92504,0.0741272,421.4189,0,0,1
31.53309,0.0741272,414.088,0,0,1
50.14114,0.0741272,406.7572,0,0,1
-120.7855,0.673667,511.7258,0,0,1
-99.00421,0.0741272,519.2546,0,0,1
-75.74414,0.07412624,510.0911,0,0,1
-52.48407,0.0741272,500.9276,0,0,1
-29.224,0.0741272,491.7641,0,0,1
-5.963989,0.07412815,482.6005,0,0,1
17.29603,0.07412696,473.437,0,0,1
40.55608,0.0741272,464.2736,0,0,1
60.29064,0.2925382,450.6302,0,0,1
87.07619,0.0741272,445.9465,0,0,1
-125.5818,1.565364,565.8658,1,0,0
-99.4726,0.0741272,609.006,0,0,1
-68.45917,0.0741272,596.7881,0,0,1
-37.4458,0.07412624,584.5702,0,0,1
-6.432373,0.07412624,572.3521,0,0,1
24.581,0.0741272,560.1341,0,0,1
55.59442,0.07412672,547.9161,0,0,1
86.60782,0.0741272,535.6981,0,0,1
70.4483,2.26597,463.5375,0,0,1
126.689,0.9653783,487.977,0,0,1
-125.4141,4.435618,563.9727,1,0,0
-100.4093,0.07412624,788.5092,0,0,1
-53.88922,0.07412815,770.1821,0,0,1
-7.36908,0.07412624,751.8552,0,0,1
39.15096,0.0741272,733.5281,0,0,1
85.67105,0.07412767,715.201,0,0,1
132.1912,0.07412672,696.8741,0,0,1
178.7113,0.0741272,678.5471,0,0,1
225.2314,0.0741272,660.2202,0,0,1
128.5374,3.951583,489.9383,0,0,1
-125.2111,7.275447,561.6815,1,0,0
-100.4936,4.924139,804.6632,0,0,1
240.546,2.716439,907.5921,0,0,1
300.3477,4.687011,672.2346,0,0,1
-125.0838,10.07413,560.2439,1,0,0
-99.41062,10.07413,597.1252,1,0,0
-125.3173,12.88358,562.8804,1,0,0
-99.37402,13.23205,590.1135,1,0,0
-125.209,15.67107,561.658,1,0,0
-99.35051,16.30627,585.6068,1,0,0
-125.1379,18.44791,560.855,1,0,0
-99.33786,19.35483,583.1828,1,0,0
-124.5999,21.02106,554.7824,1,0,0
-99.3358,22.43377,582.7889,1,0,0
-76.57074,0.7380724,457.6988,0,0,1
-59.74786,0.472188,453.3392,0,0,1
-41.28204,0.0741272,451.0682,0,0,1
-24.38544,0.0741272,440.3675,0,0,1
-7.488831,0.0741272,429.6667,0,0,1
9.407713,0.0741272,418.9662,0,0,1
26.30433,0.07412696,408.2654,0,0,1
43.20093,0.07412744,397.5648,0,0,1
60.09755,0.0741272,386.864,0,0,1
76.99416,0.0741272,376.1634,0,0,1
-69.44434,0.07412624,528.087,0,0,1
-48.32355,0.07412624,514.711,0,0,1
-27.20282,0.0741272,501.3353,0,0,1
-6.082031,0.07412624,487.9593,0,0,1
15.03867,0.0741272,474.5835,0,0,1
36.15942,0.07412744,461.2076,0,0,1
57.03705,0.08982515,447.5212,0,0,1
78.40095,0.0741272,434.4559,0,0,1
99.52172,0.0741272,421.0801,0,0,1
102.7558,0.8936996,394.7791,1,0,1
-60.05945,0.07412815,620.7825,0,0,1
-31.89844,0.07412815,602.948,0,0,1
-3.737366,0.07412815,585.1136,0,0,1
24.42356,0.0741272,567.2791,0,0,1
52.58459,0.07412672,549.4446,0,0,1
80.74559,0.07412672,531.6101,0,0,1
69.68282,1.973531,463.6741,0,0,1
125.551,0.5648923,483.8713,0,0,1
40.41234,4.823104,369.7794,1,0,1
102.4868,3.198067,394.5847,1,0,1
-41.28955,0.0741272,806.1738,0,0,1
0.9518731,0.0741272,779.4221,0,0,1
43.19338,0.07412744,752.6704,0,0,1
85.43492,0.07412672,725.9186,0,0,1
127.6765,0.0741272,699.1669,0,0,1
169.918,0.0741272,672.4153,0,0,1
212.1595,0.0741272,645.6635,0,0,1
128.4953,3.650994,486.957,0,0,1
40.2723,6.576996,369.6579,1,0,1
102.2185,5.496208,394.3908,1,0,1
248.6159,2.389872,940.3029,0,0,1
302.9706,3.60829,761.6592,0,0,1
130.462,6.834624,489.0182,0,0,1
41.05127,8.315685,370.3339,1,0,1
101.9509,7.788197,394.1974,1,0,1
44.02262,10.07413,372.9127,1,0,1
101.684,10.0741,394.0045,1,0,1
44.78386,11.87992,373.5734,1,0,1
101.5357,12.35526,393.8973,1,0,1
44.68744,13.68324,373.4897,1,0,1
101.6582,14.63919,393.9859,1,0,1
39.6537,15.29628,369.121,1,0,1
101.7808,16.92593,394.0745,1,0,1
39.80506,17.04469,369.2523,1,0,1
101.9036,19.2155,394.1633,1,0,1
-28.80536,0.0741272,462.7615,0,0,1
-14.53619,0.0741272,448.7475,0,0,1
-0.2670288,0.0741272,434.7336,0,0,1
14.00214,0.0741272,420.7196,0,0,1
28.2713,0.0741272,406.7057,0,0,1
42.54045,0.07412744,392.6917,0,0,1
56.80961,0.0741272,378.6777,0,0,1
71.07878,0.0741272,364.6638,0,0,1
85.34795,0.0741272,350.6498,0,0,1
99.61713,0.0741272,336.6358,0,0,1
-11.60693,0.0741272,515.9518,0,0,1
6.229524,0.0741272,498.4344,0,0,1
24.06599,0.07412744,480.917,0,0,1
41.90244,0.0741272,463.3995,0,0,1
59.57638,0.08445597,445.6797,0,0,1
77.57534,0.0741272,428.3646,0,0,1
95.41179,0.0741272,410.8471,0,0,1
106.9972,0.3706169,389.0804,1,0,1
131.0847,0.0741272,375.8122,0,0,1
148.9212,0.0741272,358.2948,0,0,1
17.05711,0.07412744,604.6025,0,0,1
40.83907,0.07412744,581.2458,0,0,1
64.621,0.0741272,557.8893,0,0,1
88.40295,0.0741272,534.5327,0,0,1
73.05594,1.939329,462.4614,0,0,1
128.5025,0.3937087,480.2192,0,0,1
159.7488,0.07412672,464.4629,0,0,1
106.7036,2.806931,388.8808,1,0,1
207.3127,0.0741272,417.7496,0,0,1
231.0946,0.0741272,394.393,0,0,1
74.38522,0.0741272,781.9036,0,0,1
110.0581,0.0741272,746.8687,0,0,1
145.7311,0.0741272,711.8339,0,0,1
181.404,0.0741272,676.799,0,0,1
217.0769,0.07412672,641.764,0,0,1
130.7118,3.557454,482.4687,0,0,1
44.05797,6.404467,368.0511,1,0,1
106.4109,5.236263,388.6817,1,0,1
359.7685,0.0741272,501.6244,0,0,1
270.6035,2.606094,411.749,1,0,1
241.7658,3.100786,894.1051,0,0,1
133.194,6.780366,484.9962,0,0,1
49.65723,8.166769,372.7172,1,0,1
106.1189,7.658674,388.4833,1,0,1
600.4844,2.442591,634.0562,0,0,1
270.9211,6.336914,411.8886,1,0,1
50.05662,10.07412,373.0501,1,0,1
105.8278,10.07414,388.2854,1,0,1
666.8657,10.07413,670.5764,0,0,1
271.2667,10.07404,412.0404,1,0,1
589.7083,18.97657,822.7729,0,0,1
105.6819,12.48441,388.1862,1,0,1
675.0884,18.52124,675.1002,0,0,1
271.9517,13.8218,412.3413,1,0,1
49.73424,13.89084,372.7814,1,0,1
105.8155,14.89787,388.277,1,0,1
272.6393,17.58347,412.6434,1,0,1
42.27729,15.50942,366.5671,1,0,1
105.9493,17.3145,388.368,1,0,1
273.6475,21.36874,413.0862,1,0,1
42.35302,17.32511,366.6302,1,0,1
106.0833,19.73431,388.4591,1,0,1
184.2794,21.50842,373.8274,1,0,1
24.50653,0.0741272,437.3239,0,0,1
34.60821,0.0741272,420.0624,0,0,1
44.70989,0.07412696,402.801,0,0,1
54.81155,0.0741272,385.5396,0,0,1
64.91325,0.0741272,368.2782,0,0,1
75.01491,0.0741272,351.0168,0,0,1
85.11659,0.0741272,333.7554,0,0,1
95.21829,0.0741272,316.494,0,0,1
105.3199,0.0741272,299.2326,0,0,1
115.4217,0.0741272,281.9712,0,0,1
52.54198,0.2373276,480.3334,0,0,1
60.14017,0.5291624,452.905,0,0,1
80.28714,0.07412672,441.0013,0,0,1
92.91422,0.0741272,419.4245,0,0,1
102.5606,0.2208443,395.6784,1,0,1
118.1684,0.0741272,376.271,0,0,1
130.7955,0.07412672,354.6942,0,0,1
143.4226,0.0741272,333.1175,0,0,1
103.4788,2.146721,298.7859,1,0,1
168.6768,0.0741272,289.964,0,0,1
105.9103,0.07412767,562.2064,0,0,1
72.89797,2.336412,469.3157,0,0,1
125.7581,0.6569881,489.8248,0,0,1
156.4187,0.07412672,475.8994,0,0,1
102.2722,2.694824,395.4684,1,0,1
190.0909,0.0741272,418.3614,0,0,1
206.9271,0.0741272,389.5923,0,0,1
223.7632,0.0741272,360.8233,0,0,1
103.2129,4.136429,298.7214,1,0,1
257.4355,0.0741272,303.2853,0,0,1
207.665,0.0741272,718.3095,0,0,1
232.9192,0.0741272,675.1561,0,0,1
127.9289,3.73502,492.1555,0,0,1
38.95521,6.490273,371.4385,1,0,1
101.9845,5.161697,395.2591,1,0,1
333.936,0.0741272,502.542,0,0,1
263.384,2.171509,415.4717,1,0,1
283.0583,2.177384,381.2715,0,0,1
102.9477,6.120888,298.657,1,0,1
400.84,0.7146797,324.8082,0,0,1
299.5394,4.066314,760.8516,0,0,1
314.2657,4.28581,692.2305,0,0,1
40.41726,8.263014,372.7387,1,0,1
101.6978,7.62141,395.0504,1,0,1
609.3624,1.882887,663.7265,0,0,1
264.9658,6.105515,416.1968,1,0,1
287.3819,6.080909,382.7625,0,0,1
102.6832,8.100113,298.5929,1,0,1
543.2261,4.057577,346.1781,0,0,1
42.19025,10.07413,374.3155,1,0,1
101.4118,10.07412,394.8423,1,0,1
656.1133,10.07413,691.0859,0,0,1
265.2945,10.07416,416.3475,1,0,1
290.823,10.07413,383.9492,0,0,1
102.4194,10.07413,298.5289,1,0,1
542.1544,10.07413,346.0173,0,0,1
42.87277,11.91745,374.9224,1,0,1
101.2726,12.5216,394.7409,1,0,1
663.5845,18.89361,695.4582,0,0,1
265.6276,14.04993,416.5001,1,0,1
294.1609,14.13766,385.1003,0,0,1
102.2305,12.04369,298.483,1,0,1
541.2373,16.07201,345.8796,0,0,1
43.2457,13.77058,375.2541,1,0,1
101.4039,14.97229,394.8365,1,0,1
671.652,27.90005,700.1793,0,0,1
265.9612,18.03317,416.6531,1,0,1
297.7722,18.27611,386.3456,0,0,1
102.3516,14.01563,298.5124,1,0,1
249.1623,16.58544,302.0436,1,0,1
39.22124,15.4604,371.6751,1,0,1
101.5353,17.42622,394.9321,1,0,1
266.5353,22.03154,416.9163,1,0,1
173.4897,18.50974,343.4863,1,0,1
102.4728,15.98993,298.5418,1,0,1
249.2036,19.84226,302.0498,1,0,1
39.37687,17.26396,371.8135,1,0,1
101.6669,19.8834,395.0279,1,0,1
267.4452,26.05719,417.3333,1,0,1
162.8995,20.88223,339.8342,1,0,1
102.5942,17.96667,298.5713,1,0,1
249.245,23.09986,302.056,1,0,1
92.72149,0.07412767,367.38,0,0,1
94.49906,0.0741272,347.4591,0,0,1
96.27663,0.0741272,327.5382,0,0,1
98.05421,0.0741272,307.6174,0,0,1
99.83179,0.0741272,287.6966,0,0,1
101.6094,0.0741272,267.7757,0,0,1
103.3869,0.0741272,247.8549,0,0,1
105.1645,0.0741272,227.934,0,0,1
106.9421,0.0741272,208.0132,0,0,1
108.7196,0.0741272,188.0923,0,0,1
140.3017,0.07412672,396.725,0,0,1
142.5236,0.0741272,371.8239,0,0,1
144.7456,0.0741272,346.9229,0,0,1
104.8911,1.794571,309.6308,1,0,1
149.1895,0.0741272,297.1207,0,0,1
151.4115,0.0741272,272.2196,0,0,1
153.6334,0.07412672,247.3186,0,0,1
155.8554,0.0741272,222.4175,0,0,1
158.0774,0.07412672,197.5165,0,0,1
160.2993,0.0741272,172.6154,0,0,1
219.6019,0.0741272,445.6333,0,0,1
222.5645,0.0741272,412.4319,0,0,1
225.5271,0.0741272,379.2304,0,0,1
104.0693,3.889664,309.3888,1,0,1
172.0223,1.880226,301.4803,1,0,1
234.415,0.0741272,279.6262,0,0,1
237.3776,0.07412767,246.4248,0,0,1
240.3403,0.07412672,213.2234,0,0,1
243.3029,0.07412767,180.0219,0,0,1
246.2654,0.07412767,146.8205,0,0,1
322.6056,1.242613,509.1607,0,0,1
275.1084,2.313356,439.0895,0,0,1
280.4585,2.274129,401.1996,0,0,1
103.3056,5.966766,309.1639,1,0,1
164.6459,4.760979,300.0719,1,0,1
264.1937,2.809523,282.2834,1,0,1
294.5793,2.269041,245.8143,0,0,1
288.5877,2.455663,207.9728,0,0,1
298.6498,2.325098,168.6607,0,0,1
311.5305,2.142135,127.2372,0,0,1
326.9488,5.61273,511.8393,0,0,1
596.6232,2.846342,602.2068,0,0,1
286.1759,6.115149,403.4862,0,0,1
102.9777,8.023804,309.0673,1,0,1
171.2728,7.350418,301.3372,1,0,1
264.5093,6.438653,282.3116,1,0,1
309.9648,6.018483,245.6501,0,0,1
376.4931,5.397823,198.4064,0,0,1
372.374,5.478739,153.5271,0,0,1
316.1474,6.063376,125.8519,0,0,1
329.5357,10.07413,513.4348,0,0,1
663.5601,10.07413,636.1666,0,0,1
291.8026,10.07413,405.7366,0,0,1
102.6508,10.07413,308.971,1,0,1
170.9169,10.07413,301.2692,1,0,1
264.8254,10.07413,282.3398,1,0,1
348.3339,10.07413,245.2405,0,0,1
482.7022,10.07413,186.848,0,0,1
381.5525,10.07413,151.643,0,0,1
454.0461,10.07413,84.47419,0,0,1
332.8444,14.59748,515.4754,0,0,1
669.5718,18.06141,639.2166,0,0,1
237.1112,13.52696,383.8633,1,0,1
102.4309,12.11888,308.9063,1,0,1
170.6299,12.79132,301.2144,1,0,1
265.1421,13.71595,282.368,1,0,1
352.175,14.5498,245.1995,0,0,1
541.5604,16.3786,180.4427,0,0,1
481.4204,15.73577,131.1428,0,0,1
458.8511,15.46821,83.03242,0,0,1
675.7658,26.17766,642.3591,0,0,1
235.4968,16.94649,383.2177,1,0,1
102.5809,14.16668,308.9505,1,0,1
173.6346,15.56939,301.7881,1,0,1
265.4593,17.36415,282.3963,1,0,1
355.157,19.08483,245.1677,0,0,1
547.6706,22.80362,179.7778,0,0,1
487.0698,21.50789,129.9831,0,0,1
463.6943,20.95619,81.57918,0,0,1
176.6047,18.56009,359.6645,1,0,1
102.7312,16.21758,308.9947,1,0,1
236.6475,20.23201,313.8195,1,0,1
265.8765,21.02172,282.4336,1,0,1
357.1398,23.64936,245.1466,0,0,1
519.7887,28.02851,64.74757,0,0,1
154.4541,20.47474,350.8057,1,0,1
102.8816,18.27151,309.039,1,0,1
236.5541,23.61419,313.8017,1,0,1
266.7408,24.70563,282.5107,1,0,1
359.5701,28.27118,245.1206,0,0,1
523.031,34.13903,63.77467,0,0,1
123.3781,0.0741272,284.1921,0,0,1
117.2743,0.0741272,265.1463,0,0,1
111.1706,0.0741272,246.1004,0,0,1
105.0669,0.0741272,227.0545,0,0,1
98.96317,0.0741272,208.0087,0,0,1
92.85944,0.0741272,188.9628,0,0,1
86.75574,0.0741272,169.917,0,0,1
80.65202,0.0741272,150.8711,0,0,1
74.5483,0.0741272,131.8252,0,0,1
68.44459,0.0741272,112.7794,0,0,1
178.6223,0.0741272,292.7402,0,0,1
170.9927,0.0741272,268.9329,0,0,1
163.363,0.07412767,245.1255,0,0,1
155.7334,0.07412672,221.3182,0,0,1
148.1037,0.0741272,197.5108,0,0,1
140.4741,0.0741272,173.7035,0,0,1
132.8445,0.0741272,149.8962,0,0,1
125.2148,0.0741272,126.0889,0,0,1
117.5852,0.07412767,102.2815,0,0,1
109.9555,0.0741272,78.47424,0,0,1
270.6962,0.07412767,306.9869,0,0,1
260.5233,0.0741272,275.2438,0,0,1
250.3504,0.0741272,243.5007,0,0,1
240.1776,0.07412672,211.7576,0,0,1
230.0047,0.0741272,180.0145,0,0,1
219.8318,0.0741272,148.2713,0,0,1
209.659,0.0741272,116.5283,0,0,1
199.4861,0.0741272,84.78515,0,0,1
189.3132,0.07412767,53.04208,0,0,1
179.1404,0.0741272,21.29897,0,0,1
403.5721,1.002216,327.547,0,0,1
262.7686,3.365663,275.402,1,0,1
297.3964,2.506067,242.6219,0,0,1
288.4601,2.454513,206.2911,0,0,1
302.8531,1.925013,164.452,0,0,1
335.4746,0.9787369,111.2107,0,0,1
363.2881,0.0741272,49.79241,0,0,1
348.0288,0.0741272,2.17773,0,0,1
269.6215,1.541428,-2.087473,1,0.92,0.016
317.5101,0.0741272,-93.05157,0,0,1
541.8619,4.286554,348.9447,0,0,1
263.0452,6.717322,275.4215,1,0,1
346.0563,5.823938,241.713,0,0,1
375.6878,5.403518,196.4153,0,0,1
372.6115,5.289785,149.5496,0,0,1
383.445,5.022697,95.83747,0,0,1
420.9795,4.448253,24.73147,0,0,1
407.1425,4.410863,-30.69653,0,0,1
267.0462,5.837696,-0.3196212,1,0.92,0.016
382.4462,4.291971,-146.7156,0,0,1
541.0632,10.07413,348.8211,0,0,1
263.3223,10.07413,275.441,1,0,1
349.4034,10.07413,241.6505,0,0,1
477.7279,10.07413,184.8625,0,0,1
474.0997,10.07413,127.8688,0,0,1
450.4636,10.07413,74.35966,0,0,1
426.502,10.07413,22.3325,0,0,1
411.1328,10.07413,-32.91559,0,0,1
267.0462,10.07413,-0.3196558,1,0.92,0.016
491.3068,10.07413,-236.6794,0,0,1
540.1656,15.84635,348.6822,0,0,1
263.5998,13.4361,275.4606,1,0,1
352.8416,14.38932,241.5863,0,0,1
500.597,15.9774,182.2733,0,0,1
480.5476,15.95671,126.4913,0,0,1
455.1306,15.87833,72.86401,0,0,1
431.4894,15.81402,20.16601,0,0,1
414.1617,15.81615,-34.6001,0,0,1
268.9366,14.33252,-1.617289,1,0.92,0.016
494.7764,17.2093,-239.5467,0,0,1
247.6847,16.32424,303.4262,1,0,1
263.8777,16.80324,275.4802,1,0,1
355.6654,18.75862,241.5335,0,0,1
544.9192,22.75545,177.2553,0,0,1
486.6794,21.96407,125.1814,0,0,1
459.5907,21.7762,71.43468,0,0,1
465.0179,22.28139,5.601361,0,0,1
416.7778,21.61687,-36.05487,0,0,1
202.0365,17.03642,44.30782,0,1,0
497.9344,24.42056,-242.1565,0,0,1
247.7115,19.45005,303.4304,1,0,1
264.1561,20.17557,275.4998,1,0,1
357.6889,23.15901,241.4957,0,0,1
551.1469,29.28049,176.5502,0,0,1
464.7401,27.78945,69.7844,0,0,1
419.2542,27.4716,-37.43213,0,0,1
267.8682,22.81207,-0.8838632,1,0.92,0.016
501.3179,31.71603,-244.9528,0,0,1
247.751,22.57678,303.4365,1,0,1
264.8876,23.56995,275.5514,1,0,1
360.42,27.6253,241.4447,0,0,1
421.7491,33.38273,-38.81958,0,0,1
267.8682,27.05805,-0.8838764,1,0.92,0.016
506.7578,39.1921,-249.4482,0,0,1
120.5122,0.0741272,200.7306,0,0,1
107.8462,0.0741272,185.2525,0,0,1
95.1802,0.0741272,169.7744,0,0,1
82.5142,0.0741272,154.2962,0,0,1
69.84818,0.0741272,138.8181,0,0,1
57.18219,0.07412767,123.34,0,0,1
44.51619,0.0741272,107.8618,0,0,1
31.85017,0.07412696,92.38371,0,0,1
19.18417,0.07412696,76.90557,0,0,1
6.518165,0.0741272,61.42744,0,0,1
175.0401,0.0741272,188.4133,0,0,1
159.2076,0.0741272,169.0656,0,0,1
143.375,0.0741272,149.718,0,0,1
127.5425,0.0741272,130.3703,0,0,1
111.71,0.0741272,111.0226,0,0,1
95.87749,0.0741272,91.67496,0,0,1
80.045,0.0741272,72.32729,0,0,1
64.21248,0.0741272,52.97964,0,0,1
48.38001,0.0741272,33.63194,0,0,1
32.54749,0.0741272,14.28431,0,0,1
265.9198,0.07412672,167.8844,0,0,1
244.8098,0.0741272,142.0875,0,0,1
215.6371,0.325067,119.6459,0,0,1
202.5897,0.0741272,90.49371,0,0,1
181.4797,0.0741272,64.69683,0,0,1
160.3697,0.0741272,38.89993,0,0,1
139.2597,0.0741272,13.10305,0,0,1
118.1497,0.07412726,-12.69379,0,0,1
97.0397,0.07412732,-38.49072,0,0,1
75.92969,0.0741272,-64.2876,0,0,1
308.4535,2.627422,158.2764,0,0,1
338.9081,1.575376,112.4317,0,0,1
384.3491,0.0741272,49.43591,0,0,1
352.6841,0.0741272,10.74058,0,0,1
271.7966,1.249959,4.728097,1,0.92,0.016
289.3542,0.0741272,-66.65015,0,0,1
257.6891,0.0741272,-105.3454,0,0,1
154.7209,2.277405,-57.22267,1,0,0
118.3987,2.675878,-70.14878,1,0,0
105.9488,2.254179,-118.6569,1,0,0
420.7661,5.32091,132.9059,0,0,1
385.8376,5.367894,97.64153,0,0,1
424.554,4.65702,32.70455,0,0,1
411.2644,4.423645,-20.38623,0,0,1
269.7108,5.686958,6.11306,1,0.92,0.016
385.1842,3.835863,-145.0694,0,0,1
372.6022,3.456946,-220.277,0,0,1
158.2881,6.120654,-61.56606,1,0,0
116.8071,6.402263,-67.78962,1,0,0
101.1111,6.257082,-109.895,1,0,0
469.0216,10.07413,122.0055,0,0,1
451.1321,10.07413,77.06351,0,0,1
429.7774,10.07413,30.53081,0,0,1
415.8628,10.07413,-22.82965,0,0,1
269.7107,10.07413,6.113039,1,0.92,0.016
494.2837,10.07413,-234.3473,0,0,1
378.741,10.07413,-226.4169,0,0,1
158.2881,10.07413,-61.56606,1,0,0
115.5124,10.07413,-65.8708,1,0,0
98.00539,10.07413,-104.2702,1,0,0
474.9128,15.32385,120.6747,0,0,1
455.6791,15.46026,75.63052,0,0,1
434.1517,15.59081,28.71042,0,0,1
419.4584,15.8156,-24.74017,0,0,1
271.3408,14.48077,5.030743,1,0.92,0.016
497.9626,17.76965,-237.3578,0,0,1
385.7097,16.87577,-233.3866,0,0,1
158.2881,14.0276,-61.56606,1,0,0
116.9149,13.74784,-67.94947,1,0,0
96.77402,13.80786,-102.0399,1,0,0
481.7336,20.69866,119.1339,0,0,1
460.5523,20.94128,74.09468,0,0,1
438.8476,21.20492,26.75623,0,0,1
423.1006,21.63795,-26.67542,0,0,1
272.2171,18.90834,4.448903,1,0.92,0.016
501.4468,25.55522,-240.209,0,0,1
407.1624,24.28123,-254.8428,0,0,1
158.2881,17.98108,-61.56606,1,0,0
116.301,17.40052,-67.03955,1,0,0
96.09687,17.51558,-100.8135,1,0,0
465.8026,26.52819,72.44006,0,0,1
434.1465,27.78783,-32.54474,0,0,1
270.5387,23.26531,5.563315,1,0.92,0.016
505.6078,33.45707,-243.6141,0,0,1
411.8362,31.5821,-259.5173,0,0,1
158.2882,21.93455,-61.56606,1,0,0
113.0474,20.89656,-62.21713,1,0,0
95.77793,21.21793,-100.2359,1,0,0
525.3533,34.33176,53.67221,0,0,1
442.2709,34.05326,-36.86157,0,0,1
270.9216,27.68065,5.309074,1,0.92,0.016
414.2383,38.88664,-261.9198,0,0,1
155.0461,25.68767,-57.61853,1,0,0
113.6917,24.54818,-63.17211,1,0,0
95.76181,24.93129,-100.2066,1,0,0
100.0838,0.0741272,145.494,0,0,1
83.81602,0.0741272,133.8596,0,0,1
67.54823,0.07412672,122.2253,0,0,1
51.28044,0.0741272,110.5909,0,0,1
35.01264,0.07412696,98.95647,0,0,1
18.74483,0.0741272,87.32207,0,0,1
2.477043,0.0741272,75.68766,0,0,1
-13.79071,0.0741272,64.05325,0,0,1
-30.05847,0.07412624,52.41887,0,0,1
-46.32635,0.0741272,40.78446,0,0,1
149.5045,0.0741272,119.3676,0,0,1
129.1698,0.0741272,104.8245,0,0,1
108.8351,0.0741272,90.28157,0,0,1
88.5003,0.0741272,75.73858,0,0,1
68.16554,0.0741272,61.19556,0,0,1
47.83082,0.0741272,46.65258,0,0,1
27.49607,0.0741272,32.1096,0,0,1
7.161323,0.0741272,17.56662,0,0,1
-13.1734,0.0741272,3.023595,0,0,1
-33.50812,0.0741272,-11.51929,0,0,1
231.8724,0.0741272,75.82339,0,0,1
204.7594,0.07412672,56.43274,0,0,1
177.6464,0.0741272,37.04208,0,0,1
150.5334,0.0741272,17.65142,0,0,1
123.4204,0.0741272,-1.739258,0,0,1
96.30746,0.0741272,-21.12988,0,0,1
69.19446,0.0741272,-40.52057,0,0,1
42.08146,0.0741272,-59.91113,0,0,1
-14.22414,2.667471,6.09741,1,0.92,0.016
-12.14447,0.07412696,-98.6925,0,0,1
396.6082,0.0741272,-11.26483,0,0,1
281.7341,1.710256,7.154218,1,0.92,0.016
166.4408,3.678869,45.71187,0,1,0
274.5997,0.07412744,-98.52289,0,0,1
160.885,2.277405,-44.41113,1,0,0
127.4141,2.337992,-64.62478,1,0,0
103.9656,2.017669,-101.0848,1,0,0
111.9218,0.0741272,-214.8668,0,0,1
-14.86804,5.174491,7.981045,1,0.92,0.016
29.71993,0.141443,-269.5179,0,0,1
412.2605,4.91577,-19.53967,0,0,1
277.045,5.943886,10.15608,1,0.92,0.016
166.0327,6.881439,46.02758,0,1,0
311.4812,4.578673,-133.0583,0,0,1
179.9679,5.887965,-66.14629,1,0,0
125.6697,6.236045,-62.18566,1,0,0
101.7639,6.089902,-97.24986,1,0,0
140.6706,4.388066,-278.6522,0,0,1
-14.91915,7.625822,8.130569,1,0.92,0.016
32.69052,4.991911,-281.6392,0,0,1
416.5271,10.07413,-21.79517,0,0,1
277.0451,10.07413,10.15611,1,0.92,0.016
167.5755,10.07411,44.83395,0,1,0
409.4403,10.07413,-224.7861,0,0,1
174.6779,10.07415,-60.12095,1,0,0
124.521,10.07413,-60.57953,1,0,0
100.0057,10.07413,-94.18747,1,0,0
143.3655,10.07413,-284.6313,0,0,1
-14.91917,10.07413,8.13058,1,0.92,0.016
34.06971,10.07413,-287.2669,0,0,1
419.9557,15.31034,-23.60779,0,0,1
279.7628,14.23433,8.416243,1,0.92,0.016
168.9899,13.30263,43.73961,0,1,0
418.9821,17.01371,-233.7209,0,0,1
170.1664,14.11248,-54.98248,1,0,0
125.6654,13.91214,-62.17966,1,0,0
98.69232,13.99697,-91.89981,1,0,0
145.1039,15.86599,-288.4886,0,0,1
-14.5992,12.53191,7.194603,1,0.92,0.016
35.49368,15.26569,-293.0773,0,0,1
423.5704,20.61969,-25.51862,0,0,1
420.0554,21.48783,-81.39795,0,0,1
171.0373,16.58071,42.15556,0,1,0
430.5493,24.26408,-244.5523,0,0,1
169.1255,18.11941,-53.79696,1,0,0
125.045,17.72882,-61.31221,1,0,0
97.97993,17.89134,-90.65899,1,0,0
146.503,21.72462,-291.5927,0,0,1
436.1133,26.27317,-32.1496,0,0,1
278.0462,22.49797,9.515136,1,0.92,0.016
171.4772,19.85,41.81514,0,1,0
168.722,22.12379,-53.33735,1,0,0
124.7706,21.54201,-60.92853,1,0,0
97.68173,21.78207,-90.13964,1,0,0
147.9826,27.65579,-294.8754,0,0,1
442.7241,31.94039,-35.64429,0,0,1
278.0462,26.63925,9.515131,1,0.92,0.016
172.7493,23.17019,40.83102,0,1,0
168.8691,26.14922,-53.50491,1,0,0
122.4713,25.20653,-57.71347,1,0,0
97.73921,25.68929,-90.23973,1,0,0
150.0022,33.70913,-299.3565,0,0,1
68.39414,0.0741272,100.1791,0,0,1
49.76875,0.0741272,92.89249,0,0,1
31.14334,0.07412744,85.60589,0,0,1
12.51793,0.0741272,78.31927,0,0,1
-6.107422,0.0741272,71.03263,0,0,1
-24.73285,0.0741272,63.74602,0,0,1
-43.35822,0.0741272,56.45938,0,0,1
-61.98364,0.0741272,49.17278,0,0,1
-80.60901,0.0741272,41.88617,0,0,1
-99.23444,0.0741272,34.59951,0,0,1
109.8924,0.0741272,62.72391,0,0,1
86.61069,0.07412672,53.61562,0,0,1
63.32895,0.0741272,44.50732,0,0,1
40.0472,0.0741272,35.39906,0,0,1
16.76542,0.0741272,26.2908,0,0,1
-6.516296,0.0741272,17.18256,0,0,1
-29.79803,0.0741272,8.074239,0,0,1
-53.07977,0.0741272,-1.034058,0,0,1
-76.36151,0.0741272,-10.14233,0,0,1
-99.64331,0.0741272,-19.25061,0,0,1
179.0562,0.07412717,0.2984619,0,0,1
148.0139,0.0741272,-11.84589,0,0,1
116.9716,0.0741272,-23.99023,0,0,1
85.92928,0.07412708,-36.13458,0,0,1
54.88693,0.0741272,-48.27893,0,0,1
23.8446,0.07412696,-60.42328,0,0,1
-28.91441,2.47638,4.921209,1,0.92,0.016
-38.24005,0.0741272,-84.71204,0,0,1
-69.28235,0.07412696,-96.85638,0,0,1
-100.3247,0.0741272,-109.0007,0,0,1
313.7202,0.1624124,-121.2454,0,0,1
270.8205,0.07412744,-142.7689,0,0,1
146.3984,2.493168,-61.56606,1,0,0
112.6016,2.438588,-77.71872,1,0,0
131.1299,0.0741272,-197.4183,0,0,1
84.56643,0.07412767,-215.6349,0,0,1
-29.5577,5.056404,7.216622,1,0.92,0.016
-8.560547,0.0741272,-252.0681,0,0,1
-55.20624,0.09348345,-269.2775,0,0,1
-101.5916,0.3088436,-275.8617,0,0,1
321.763,5.021366,-128.5046,0,0,1
353.9799,3.945528,-231.4244,0,0,1
146.3984,6.283651,-61.56606,1,0,0
110.8511,6.288151,-74.98967,1,0,0
171.8444,4.184111,-277.0604,0,0,1
109.265,4.396213,-278.7672,0,0,1
-29.60906,7.56716,7.399868,1,0.92,0.016
-2.709106,4.745535,-285.0632,0,0,1
-54.05396,4.948166,-283.3919,0,0,1
-100.2745,6.802273,-102.3795,1,0,0
436.7597,10.07413,-232.2975,0,0,1
359.0912,10.07413,-236.8734,0,0,1
145.0108,10.07417,-59.79408,1,0,0
109.5252,10.07413,-72.92245,1,0,0
174.7131,10.07413,-282.6719,0,0,1
111.5417,10.07413,-284.5866,0,0,1
-29.60907,10.07413,7.399863,1,0.92,0.016
-1.835693,10.07413,-289.9877,0,0,1
-53.63287,10.07413,-288.5502,0,0,1
-100.2042,10.07413,-93.12517,1,0,0
442.7381,16.58448,-237.6934,0,0,1
364.5515,16.3462,-242.6946,0,0,1
139.0175,13.74993,-52.14118,1,0,0
108.517,13.81771,-71.35062,1,0,0
177.2179,16.08161,-287.5716,0,0,1
113.7422,15.87493,-290.2115,0,0,1
-29.3285,12.59144,6.39881,1,0.92,0.016
-1.097717,15.49321,-294.1492,0,0,1
-53.27588,15.29169,-292.9232,0,0,1
-100.152,13.19622,-86.24988,1,0,0
448.3859,23.23093,-242.791,0,0,1
138.3774,17.40586,-51.32372,1,0,0
107.9301,17.53998,-70.43559,1,0,0
-28.65073,15.15874,3.980407,1,0.92,0.016
-0.2321167,21.0095,-299.03,0,0,1
-52.86328,20.60638,-297.9768,0,0,1
-100.1288,16.26158,-83.19511,1,0,0
137.9761,21.05303,-50.81131,1,0,0
107.6062,21.25525,-69.93066,1,0,0
-28.07454,17.76478,1.924433,1,0.92,0.016
-100.1194,19.32075,-81.95435,1,0,0
137.8141,24.7026,-50.60453,1,0,0
107.5427,24.97768,-69.83151,1,0,0
-28.73091,20.23152,4.266483,1,0.92,0.016
-100.1164,22.38843,-81.56331,1,0,0
8.577834,0.0741272,53.20948,0,0,1
-11.41241,0.0741272,52.58693,0,0,1
-31.40277,0.0741272,51.96443,0,0,1
-51.39307,0.0741272,51.34189,0,0,1
-71.38342,0.07412815,50.71938,0,0,1
-91.37372,0.0741272,50.09686,0,0,1
-111.364,0.0741272,49.47429,0,0,1
-131.3543,0.07412815,48.85176,0,0,1
-147.379,0.811985,63.11716,0,1,0
-171.335,0.0741272,47.60668,0,0,1
35.12206,0.0741272,4.011869,0,0,1
10.13416,0.0741272,3.233708,0,0,1
-15.74592,0.1819508,5.124699,1,0.92,0.016
-39.84161,0.0741272,1.677364,0,0,1
-64.82947,0.0741272,0.8992404,0,0,1
-89.81738,0.0741272,0.1210719,0,0,1
-114.8052,0.0741272,-0.6571045,0,0,1
-139.7932,0.0741272,-1.435303,0,0,1
-147.7222,2.613317,61.82854,0,1,0
-189.769,0.07412714,-2.991638,0,0,1
79.36243,0.0741272,-77.98419,0,0,1
46.04524,0.0741272,-79.02173,0,0,1
-16.37911,2.71239,7.019,1,0.92,0.016
-20.58917,0.0741272,-81.09686,0,0,1
-53.90631,0.0741272,-82.13434,0,0,1
-87.22351,0.07412744,-83.17194,0,0,1
-119.5495,0.5062034,-69.76913,1,0,0
-146.9433,1.303202,-44.04276,1,0,0
-147.213,4.535368,63.74007,0,1,0
-220.4923,0.0741272,-87.32214,0,0,1
167.8432,0.0741272,-241.9763,0,0,1
117.8674,0.07412672,-243.5327,0,0,1
-17.00258,5.203975,8.884216,1,0.92,0.016
17.91579,0.0741272,-246.6452,0,0,1
-32.05988,0.0741272,-248.2017,0,0,1
-82.03571,0.07412767,-249.7579,0,0,1
-119.4608,3.721265,-68.47801,1,0,0
-149.8839,3.878377,-61.56606,1,0,0
-147.5287,6.358118,62.55489,0,1,0
-280.967,0.1268525,-253.3155,0,0,1
103.7455,6.281502,-123.1764,1,0,0
133.1887,4.718589,-278.6265,0,0,1
-17.04503,7.640333,9.011139,1,0.92,0.016
25.8951,4.728747,-280.9514,0,0,1
-27.42975,4.720886,-283.3986,0,0,1
-81.04132,4.754651,-281.6902,0,0,1
-119.2757,6.924592,-65.78133,1,0,0
-149.8839,6.976253,-61.56606,1,0,0
-147.6104,8.213079,62.24828,0,1,0
-286.0947,4.961404,-267.3905,0,0,1
100.196,10.07413,-116.5976,1,0,0
135.539,10.07413,-284.01,0,0,1
-17.04501,10.07413,9.011129,1,0.92,0.016
27.18602,10.07413,-286.5017,0,0,1
-26.83569,10.07413,-287.9146,0,0,1
-80.84644,10.07413,-287.9478,0,0,1
-119.1296,10.07413,-63.6524,1,0,0
-149.8839,10.07413,-61.56606,1,0,0
-147.7128,10.07412,61.86383,0,1,0
-287.5526,10.07413,-271.3918,0,0,1
97.58206,13.75065,-111.7528,1,0,0
137.156,15.52173,-287.7137,0,0,1
-16.73703,12.51723,8.089725,1,0.92,0.016
28.44931,15.53006,-291.933,0,0,1
-26.39716,15.50614,-291.2477,0,0,1
-80.67865,15.51013,-293.3371,0,0,1
-119.2525,13.22029,-65.44284,1,0,0
-149.8839,13.172,-61.56606,1,0,0
-147.8517,11.94414,61.34226,0,1,0
-288.9093,15.26319,-275.1162,0,0,1
96.14619,17.37309,-109.0916,1,0,0
138.4258,21.02826,-290.6222,0,0,1
-16.10726,14.99838,6.205709,1,0.92,0.016
-26.00665,20.99775,-294.2164,0,0,1
-80.4184,21.11331,-301.692,0,0,1
-119.2476,16.36501,-65.3709,1,0,0
-149.8839,16.26988,-61.56606,1,0,0
-148.1198,13.83411,60.33607,0,1,0
-290.4289,20.53469,-279.2869,0,0,1
95.44234,20.9828,-107.787,1,0,0
139.615,26.58812,-293.3462,0,0,1
-14.24625,17.62919,0.6382534,1,0.92,0.016
-25.60919,26.55051,-297.2374,0,0,1
-119.2426,19.5083,-65.29898,1,0,0
-149.8839,19.36775,-61.56606,1,0,0
-148.5937,15.76702,58.55683,0,1,0
95.34488,24.61168,-107.6064,1,0,0
140.8423,32.2067,-296.1573,0,0,1
-16.0659,19.92763,6.08198,1,0.92,0.016
-25.13495,32.18735,-300.842,0,0,1
-118.7543,22.36923,-58.18555,1,0,0
-133.4531,18.57153,36.34521,0,1,0
-149.3273,17.77383,55.80276,0,1,0
-54.50946,0.0741272,30.58411,0,0,1
-73.78632,0.0741272,35.9136,0,0,1
-93.06317,0.0741272,41.24305,0,0,1
-112.34,0.0741272,46.57254,0,0,1
-131.6169,0.07412815,51.90203,0,0,1
-149.0146,0.4267216,64.0284,0,1,0
-170.1706,0.07412815,62.56095,0,0,1
-189.4474,0.0741272,67.89042,0,0,1
-208.7243,0.07412624,73.21991,0,0,1
-228.0012,0.0741272,78.54937,0,0,1
-43.73712,0.0741272,-24.26996,0,0,1
-67.83319,0.0741272,-17.60797,0,0,1
-91.92926,0.0741272,-10.94623,0,0,1
-116.0253,0.0741272,-4.284302,0,0,1
-140.1213,0.0741272,2.37757,0,0,1
-149.3918,2.299572,62.66403,0,1,0
-188.3135,0.0741272,15.70119,0,0,1
-212.4095,0.0741272,22.36299,0,0,1
-236.5056,0.0741272,29.02487,0,0,1
-260.6017,0.0741272,35.6867,0,0,1
-25.78314,0.07412696,-115.6931,0,0,1
-57.91119,0.0741272,-106.8107,0,0,1
-90.03931,0.0741272,-97.92828,0,0,1
-120.7159,0.6649446,-69.01439,1,0,0
-148.0928,1.16815,-44.04276,1,0,0
-149.6294,4.216463,61.80483,0,1,0
-218.5516,0.0741272,-62.39844,0,0,1
-250.6798,0.0741272,-53.51599,0,0,1
-253.2933,1.667709,2.318761,1,0.92,0.016
-314.9359,0.07412708,-35.75098,0,0,1
4.754314,0.5726664,-271.1928,0,0,1
-39.3645,0.2920299,-273.5535,0,0,1
-86.33112,0.1372938,-268.5958,0,0,1
-120.6158,3.828505,-67.63278,1,0,0
-151.1019,3.782975,-61.56606,1,0,0
-149.6121,6.170305,61.86716,0,1,0
-279.028,0.0741272,-218.5976,0,0,1
-327.1547,0.07697392,-205.1443,0,0,1
-252.1884,4.509618,4.076406,1,0.92,0.016
-423.6042,0.0741272,-178.6266,0,0,1
6.983967,5.219908,-282.5464,0,0,1
-38.34705,5.097625,-282.7007,0,0,1
-86.02185,4.969347,-282.8291,0,0,1
-120.4249,6.977211,-64.99902,1,0,0
-151.1019,6.928554,-61.56606,1,0,0
-149.6981,8.118994,61.55626,0,1,0
-297.1852,4.573731,-265.4945,0,0,1
-350.2778,4.572045,-250.9909,0,0,1
-251.8526,7.297917,4.610671,1,0.92,0.016
-466.2341,4.420307,-234.6755,0,0,1
8.101524,10.07413,-288.2371,0,0,1
-37.84222,10.07413,-287.2396,0,0,1
-85.88306,10.07413,-289.2138,0,0,1
-120.2796,10.07413,-62.99405,1,0,0
-151.1019,10.07413,-61.56606,1,0,0
-149.8046,10.07412,61.17097,0,1,0
-298.7343,10.07413,-269.4954,0,0,1
-353.9377,10.07413,-258.2474,0,0,1
-251.8526,10.07413,4.610712,1,0.92,0.016
-469.3506,10.07413,-238.773,0,0,1
9.126907,15.02781,-293.4585,0,0,1
-37.43011,15.12764,-290.9445,0,0,1
-85.75977,15.29446,-294.8898,0,0,1
-120.4035,13.16814,-64.70392,1,0,0
-151.1019,13.2197,-61.56606,1,0,0
-149.9258,12.0378,60.73247,0,1,0
-300.1361,15.65585,-273.1161,0,0,1
-252.4668,12.86139,3.633532,1,0.92,0.016
-471.9524,15.81565,-242.1937,0,0,1
-37.04358,20.2461,-294.42,0,0,1
-85.61432,20.64308,-301.5855,0,0,1
-120.3984,16.26077,-64.63333,1,0,0
-151.1019,16.36528,-61.56606,1,0,0
-150.286,14.02852,59.42959,0,1,0
-301.7568,21.3269,-277.3021,0,0,1
-253.5818,15.68879,1.859847,1,0.92,0.016
-474.5817,21.63783,-245.6508,0,0,1
-36.59351,25.44548,-298.4661,0,0,1
-120.3933,19.35201,-64.56277,1,0,0
-151.1019,19.51086,-61.56606,1,0,0
-151.1573,16.10379,56.27822,0,1,0
-253.9352,18.5152,1.297631,1,0.92,0.016
-477.7831,27.56697,-249.8599,0,0,1
-119.8825,22.16744,-57.51403,1,0,0
-134.2399,18.69098,36.62742,0,1,0
-151.7963,18.20961,53.96684,0,1,0
-252.848,21.25063,3.027273,1,0.92,0.016
-496.426,34.54164,-274.3712,0,0,1
-114.114,0.0741272,27.0039,0,0,1
-131.2931,0.07412815,37.24498,0,0,1
-144.5378,0.8475018,63.14803,0,1,0
-165.6513,0.0741272,57.72705,0,0,1
-182.8304,0.0741272,67.96809,0,0,1
-200.0095,0.0741272,78.20914,0,0,1
-217.1886,0.0741272,88.45018,0,0,1
-234.3677,0.0741272,98.69122,0,0,1
-251.5468,0.0741272,108.9323,0,0,1
-268.7258,0.07412815,119.1733,0,0,1
-118.2429,0.0741272,-28.74512,0,0,1
-139.7167,0.0741272,-15.94379,0,0,1
-144.3242,2.726408,63.9983,0,1,0
-182.6644,0.0741272,9.658813,0,0,1
-204.1382,0.0741272,22.4601,0,0,1
-225.6121,0.0741272,35.26147,0,0,1
-247.0859,0.0741272,48.06277,0,0,1
-268.5598,0.07412624,60.86405,0,0,1
-290.0336,0.07412815,73.66538,0,0,1
-311.5075,0.07412624,86.46663,0,0,1
-121.2019,1.49909,-68.69992,1,0,0
-144.1667,1.781697,-44.04276,1,0,0
-144.3046,4.565647,64.07629,0,1,0
-211.0195,0.0741272,-70.4549,0,0,1
-239.6512,0.0741272,-53.38647,0,0,1
-268.2832,0.0741272,-36.31812,0,0,1
-296.9149,0.0741272,-19.24969,0,0,1
-325.5468,0.07412726,-2.181335,0,0,1
-311.9623,1.719478,53.57136,0,0,0
-353.4158,1.104749,54.42766,0,0,0
-121.0632,4.391024,-66.82746,1,0,0
-146.9419,4.216385,-61.56606,1,0,0
-144.4756,6.388359,63.39544,0,1,0
-267.7297,0.07412672,-230.6823,0,0,1
-298.4618,0.6474209,-178.9904,0,0,1
-323.8279,1.237967,-129.4929,0,0,1
-384.1611,0.4892728,-137.1079,0,0,1
-439.5205,0.07412744,-128.2718,0,0,1
-312.7354,4.484274,52.86297,0,0,0
-351.8657,4.13077,55.61274,0,0,0
-120.8902,7.253532,-64.49091,1,0,0
-146.9419,7.145256,-61.56606,1,0,0
-144.8047,8.218304,62.08551,0,1,0
-280.7749,4.690742,-267.5397,0,0,1
-334.3389,4.518899,-255.6144,0,0,1
-386.4448,4.433185,-234.5311,0,0,1
-457.4518,4.055996,-236.1139,0,0,1
-536.0332,3.662801,-235.045,0,0,1
-312.9492,7.276434,52.6671,0,0,0
-351.6631,7.10482,55.76762,0,0,0
-120.759,10.07413,-62.71964,1,0,0
-146.9419,10.07413,-61.56606,1,0,0
-144.94,10.07411,61.54678,0,1,0
-282.4547,10.07413,-272.286,0,0,1
-337.3362,10.07413,-262.0159,0,0,1
-394.0373,10.07413,-247.2673,0,0,1
-460.407,10.07413,-240.1061,0,0,1
-539.3737,10.07413,-238.7406,0,0,1
-312.1486,10.07414,53.40065,0,0,0
-352.2097,10.0741,55.34971,0,0,0
-120.7825,12.88169,-63.03756,1,0,0
-146.9419,13.003,-61.56606,1,0,0
-145.0752,11.94057,61.00887,0,1,0
-283.9523,15.55089,-276.5171,0,0,1
-341.2,15.79035,-270.2676,0,0,1
-397.2948,15.92696,-252.7318,0,0,1
-462.7156,16.18029,-243.2246,0,0,1
-542.0128,16.5729,-241.6603,0,0,1
-312.8715,12.87083,52.73824,0,0,0
-351.0273,13.03601,56.25372,0,0,0
-120.7825,15.68925,-63.03756,1,0,0
-146.9419,15.93187,-61.56606,1,0,0
-145.3118,13.82563,60.06698,0,1,0
-285.8376,21.13848,-281.8438,0,0,1
-401.5087,21.94439,-259.8006,0,0,1
-464.9711,22.3619,-246.2717,0,0,1
-544.5002,23.14441,-244.4121,0,0,1
-318.0077,15.80097,48.03178,0,0,0
-353.4268,16.05397,54.41923,0,0,0
-120.7825,18.49681,-63.03756,1,0,0
-146.9419,18.86074,-61.56606,1,0,0
-145.7202,15.74955,58.441,0,1,0
-467.6721,28.64129,-249.9202,0,0,1
-547.2805,29.80153,-247.4881,0,0,1
-333.5848,19.2715,33.7579,0,0,0
-357.4282,19.18412,51.36037,0,0,0
-120.7825,21.30437,-63.03755,1,0,0
-146.9419,21.78961,-61.56606,1,0,0
-146.4113,17.75004,55.68996,0,1,0
-179.5026,0.0741272,41.93315,0,0,1
-192.8718,0.0741272,56.80811,0,0,1
-206.241,0.0741272,71.68308,0,0,1
-219.6102,0.0741272,86.55804,0,0,1
-232.9795,0.0741272,101.433,0,0,1
-246.3487,0.0741272,116.308,0,0,1
-259.7179,0.0741272,131.1829,0,0,1
-273.0871,0.0741272,146.0579,0,0,1
-286.4563,0.0741272,160.9328,0,0,1
-290.4313,0.5386648,179.2543,0,0,1
-199.9785,0.0741272,-10.08356,0,0,1
-216.69,0.0741272,8.510158,0,0,1
-233.4016,0.07412624,27.10384,0,0,1
-250.113,0.0741272,45.69757,0,0,1
-266.8245,0.07412815,64.29125,0,0,1
-283.536,0.07412815,82.88499,0,0,1
-300.2476,0.07412815,101.4787,0,0,1
-314.1889,0.2004099,121.7131,0,0,1
-309.1517,1.112749,150.2294,0,0,1
-348.4704,0.1497536,157.9611,0,0,1
-234.105,0.0741272,-96.77802,0,0,1
-256.387,0.0741272,-71.98651,0,0,1
-278.669,0.07412744,-47.19489,0,0,1
-300.951,0.0741272,-22.40326,0,0,1
-323.233,0.07412624,2.388313,0,0,1
-345.5151,0.0741272,27.17991,0,0,1
-367.7971,0.07412624,51.97154,0,0,1
-372.1545,0.6869726,87.37991,0,0,1
-412.3611,0.07412815,101.5547,0,0,1
-413.6667,0.6964912,134.0421,0,0,1
-297.2511,0.3235354,-257.1937,0,0,1
-334.6511,0.1215644,-230.6886,0,0,1
-250.2851,4.452506,-0.6075534,1,0.92,0.016
-388.0281,0.552737,-139.0486,0,0,1
-436.05,0.0741272,-121.4176,0,0,1
-317.5638,4.159071,52.30168,0,0,0
-365.8612,3.455167,53.39024,0,0,0
-536.319,0.0741272,-9.855347,0,0,1
-465.1247,2.289927,76.6707,1,0,0
-460.955,2.887019,116.693,1,0,0
-300.3607,5.1229,-265.0931,0,0,1
-345.8293,4.86319,-253.3554,0,0,1
-249.9315,7.269826,-0.02714938,1,0.92,0.016
-460.137,4.131429,-235.643,0,0,1
-539.1154,3.551524,-234.5217,0,0,1
-317.1411,7.122305,52.68169,0,0,0
-639.0984,3.393849,-146.8656,0,0,1
-652.6464,3.748369,-78.75641,0,0,1
-459.9353,6.236986,79.11809,1,0,0
-458.3936,6.505903,117.6328,1,0,0
-301.8237,10.07413,-268.8098,0,0,1
-348.8077,10.07413,-259.395,0,0,1
-249.9315,10.07413,-0.02713647,1,0.92,0.016
-463.0993,10.07413,-239.6115,0,0,1
-542.5374,10.07413,-238.277,0,0,1
-315.3788,10.07413,54.26564,0,0,0
-363.8618,10.07413,54.85574,0,0,0
-656.3491,10.07413,-80.94946,0,0,1
-457.3831,10.07413,80.32175,1,0,0
-456.9497,10.07413,118.1625,1,0,0
-303.1718,15.094,-272.2344,0,0,1
-250.5492,12.8898,-1.040914,1,0.92,0.016
-465.4199,16.10342,-242.7199,0,0,1
-545.142,16.68576,-241.1354,0,0,1
-316.0259,13.01097,53.68393,0,0,0
-364.9315,13.37212,54.07166,0,0,0
-659.2991,16.4757,-82.69678,0,0,1
-454.7435,13.8563,81.56657,1,0,0
-455.0116,13.60891,118.8735,1,0,0
-304.7214,20.18956,-276.1713,0,0,1
-406.8311,21.45949,-257.5505,0,0,1
-467.7931,22.21053,-245.899,0,0,1
-547.649,23.37148,-243.8868,0,0,1
-320.521,16.06868,49.64389,0,0,0
-654.2028,23.80736,-157.9355,0,0,1
-662.0648,22.94032,-84.3349,0,0,1
-453.6846,17.61603,82.06601,1,0,0
-454.05,17.12466,119.2263,1,0,0
-169.6145,15.34974,67.05293,0,1,0
-470.715,28.42241,-249.8131,0,0,1
-550.592,30.15058,-247.1163,0,0,1
-333.8497,19.60359,37.66445,0,0,0
-664.9442,29.47187,-86.04034,0,0,1
-453.196,21.37146,82.29646,1,0,0
-453.5608,20.63541,119.4058,1,0,0
-251.9754,21.44184,-3.381732,1,0.92,0.016
-668.4512,36.09766,-88.11755,0,0,1
-453.1634,25.13586,82.31179,1,0,0
-453.3789,24.14865,119.4725,1,0,0
-234.1846,0.0741272,72.95655,0,0,1
-242.8847,0.0741272,90.96513,0,0,1
-251.5847,0.0741272,108.9737,0,0,1
-260.2848,0.0741272,126.9823,0,0,1
-268.9849,0.0741272,144.9909,0,0,1
-277.6849,0.0741272,162.9995,0,0,1
-286.3849,0.0741272,181.0081,0,0,1
-285.9798,0.535183,201.3673,0,0,1
-289.3082,0.7762508,219.3405,0,0,1
-294.7453,0.8996716,236.2693,0,0,1
-268.3311,0.07412624,28.69564,0,0,1
-279.2061,0.0741272,51.20641,0,0,1
-290.0812,0.07412624,73.71715,0,0,1
-300.9562,0.0741272,96.2279,0,0,1
-311.8313,0.07412815,118.7386,0,0,1
-306.4208,0.7975798,149.1169,0,0,1
-310.8342,1.038063,172.0731,0,0,1
-344.4564,0.0741272,186.2708,0,0,1
-355.3316,0.07412624,208.7815,0,0,1
-346.4413,0.8099699,232.6689,0,0,1
-325.2417,0.07412708,-45.07239,0,0,1
-339.7418,0.07412708,-15.05817,0,0,1
-312.0491,1.718157,53.59802,0,0,0
-355.52,0.5617676,54.96849,0,0,0
-370.0103,0.5373545,83.092,0,0,1
-397.7421,0.07412624,104.9991,0,0,1
-373.9138,1.292279,149.0206,0,0,1
-371.7739,1.744173,179.2185,0,0,1
-441.2423,0.0741272,195.042,0,0,1
-354.4278,2.903012,232.1126,0,0,1
-439.0629,0.0741272,-192.6086,0,0,1
-460.8131,0.0741272,-147.5871,0,0,1
-312.7751,4.484665,52.93316,0,0,0
-355.2018,3.740372,55.20908,0,0,0
-526.0635,0.0741272,-12.52277,0,0,1
-469.1545,1.821275,70.49927,1,0,0
-461.4305,2.365259,117.0374,1,0,0
-500.6502,1.910484,145.9475,1,0,0
-613.064,0.07412815,167.5631,0,0,1
-361.6505,5.158937,231.6096,0,0,1
-471.2991,4.602098,-234.3934,0,0,1
-540.3846,3.978747,-234.689,0,0,1
-313.0491,7.275824,52.68218,0,0,0
-354.2974,6.918365,55.89295,0,0,0
-648.0254,3.650884,-87.24951,0,0,1
-464.1497,6.003285,72.91712,1,0,0
-458.6322,6.249334,118.0601,1,0,0
-494.1765,6.05787,147.6187,1,0,0
-663.5916,4.584011,159.4823,0,0,1
-377.9817,7.464533,230.4722,0,0,1
-474.5634,10.07413,-238.6245,0,0,1
-543.4945,10.07413,-238.0933,0,0,1
-312.2255,10.07413,53.43647,0,0,0
-355.2719,10.07413,55.15609,0,0,0
-651.4957,10.07413,-89.37579,0,0,1
-460.4652,10.07413,74.69711,1,0,0
-457.0824,10.07413,118.6265,1,0,0
-488.9511,10.07413,148.9677,1,0,0
-667.6342,10.07413,158.8358,0,0,1
-682.3293,10.07413,209.2753,0,0,1
-477.2668,15.63354,-242.1287,0,0,1
-545.9199,16.2457,-240.748,0,0,1
-312.9572,12.87125,52.76633,0,0,0
-353.1592,13.21589,56.75367,0,0,0
-654.2228,16.56969,-91.04675,0,0,1
-455.1827,14.04539,77.24911,1,0,0
-454.9377,13.85978,119.4102,1,0,0
-485.0604,13.99807,149.9721,1,0,0
-670.9547,15.63567,158.3047,0,0,1
-685.0714,15.54188,209.0843,0,0,1
-479.841,21.26834,-245.4654,0,0,1
-548.2279,22.48083,-243.2745,0,0,1
-318.0077,15.79956,48.14096,0,0,0
-357.0074,16.45228,53.84381,0,0,0
-656.7576,23.12441,-92.59973,0,0,1
-453.8932,17.98801,77.8721,1,0,0
-454.0266,17.62613,119.7432,1,0,0
-483.3131,17.88662,150.4232,1,0,0
-674.2325,21.26079,157.7806,0,0,1
-687.5929,21.05658,208.9087,0,0,1
-482.808,26.99578,-249.3113,0,0,1
-550.8983,28.79446,-246.1976,0,0,1
-333.5789,19.269,33.88014,0,0,0
-659.2595,29.73715,-94.13281,0,0,1
-454.4965,21.96504,77.58068,1,0,0
-453.6025,21.38865,119.8982,1,0,0
-482.7309,21.77517,150.5736,1,0,0
-677.9929,26.96355,157.1792,0,0,1
-690.1152,26.61823,208.733,0,0,1
-487.7152,32.92375,-255.6721,0,0,1
-661.9016,36.41482,-95.75165,0,0,1
-454.6278,25.93452,77.51724,1,0,0
-453.5828,25.15933,119.9054,1,0,0
-482.8019,25.6784,150.5552,1,0,0
-692.8177,32.23354,208.5448,0,0,1
-274.5218,0.0741272,113.258,0,0,1
-278.3843,0.0741272,132.8815,0,0,1
-282.2466,0.0741272,152.505,0,0,1
-286.1091,0.0741272,172.1285,0,0,1
-285.9597,0.2826748,192.9668,0,0,1
-286.4109,0.452405,212.8366,0,0,1
-288.4857,0.5344439,231.8737,0,0,1
-292.7145,0.507762,250.5955,0,0,1
-302.6115,0.2093334,269.9723,0,0,1
-309.2838,0.0741272,289.8695,0,0,1
-318.7524,0.0741272,79.07253,0,0,1
-323.5806,0.07412624,103.6019,0,0,1
-305.3726,1.072175,140.2943,0,0,1
-318.8113,0.6863089,158.6196,0,0,1
-307.4195,1.348537,186.469,0,0,1
-342.8927,0.0741272,201.7194,0,0,1
-345.3149,0.1703186,226.4772,0,0,1
-310.5089,1.723081,250.6498,0,0,1
-329.5394,1.145721,272.5956,0,0,1
-361.0268,0.1186543,299.615,0,0,1
-352.7224,1.422084,52.81736,0,0,0
-398.9077,0.0741272,54.80255,0,0,1
-383.5082,0.7837009,99.03835,0,0,1
-401.621,0.3975525,124.4118,0,0,1
-370.8597,1.551266,167.2601,0,0,1
-375.5424,1.575848,195.2931,0,0,1
-361.1937,2.170138,224.9694,0,0,1
-336.7509,3.038868,250.7299,1,0.92,0.016
-337.0614,3.160654,273.3284,0,0,1
-403.6242,1.400138,307.6379,0,0,1
-348.7428,4.39608,55.89326,0,0,0
-549.562,0.0741272,-42.7962,0,0,1
-559.2181,0.07412624,6.262541,0,0,1
-461.566,2.351104,99.64906,1,0,0
-475.2484,2.221668,135.6524,1,0,0
-588.1865,0.0741272,153.4388,0,0,1
-585.485,0.3211594,203.671,0,0,1
-335.2432,5.413522,250.7253,1,0.92,0.016
-343.4097,5.342957,273.9468,0,0,1
-540.1999,1.710731,333.3611,0,0,1
-348.4111,7.238858,56.14957,0,0,0
-645.0867,4.017352,-104.6801,0,0,1
-662.604,3.954309,-48.32574,0,0,1
-461.566,6.212617,99.64906,1,0,0
-471.446,6.187432,136.8038,1,0,0
-698.2463,3.952413,131.776,0,0,1
-672.6117,4.3268,195.3976,0,0,1
-335.2432,7.743824,250.7253,1,0.92,0.016
-351.0544,7.634973,274.6916,0,0,1
-688.2225,4.49391,361.2402,0,0,1
-348.3902,10.07413,56.16575,0,0,0
-649.0032,10.07413,-107.2173,0,0,1
-668.6202,10.07413,-51.50244,0,0,1
-461.566,10.07413,99.64906,1,0,0
-468.5612,10.07413,137.6772,1,0,0
-712.6597,10.07413,128.939,0,0,1
-676.3098,10.07413,195.0464,0,0,1
-335.2432,10.07413,250.7253,1,0.92,0.016
-690.171,10.07413,307.7283,0,0,1
-691.8447,10.07413,361.9225,0,0,1
-349.1934,12.91825,55.54498,0,0,0
-652.177,16.20934,-109.2735,0,0,1
-673.0359,16.30694,-53.83392,0,0,1
