190.0472,0.07412815,168.5078,0,0,1
179.6932,0.0741272,145.7527,0,0,1
169.3392,0.0741272,122.9976,0,0,1
355.6326,0.0741272,331.205,0,0,1
106.7589,6.62888,311.8071,1,0,1
101.9979,6.629013,301.3549,1,0,1
289.3289,0.8259878,246.0021,0,0,1
285.9178,0.5310316,214.7661,0,0,1
286.6056,0.0741272,179.5044,0,0,1
272.8002,0.07412624,149.1644,0,0,1
258.9948,0.0741272,118.8242,0,0,1
245.1894,0.0741272,88.48411,0,0,1
231.384,0.0741272,58.14403,0,0,1
532.2839,0.2453051,337.6779,0,0,1
106.5061,7.781998,311.8189,1,0,1
101.8241,7.780746,301.3785,1,0,1
300.9184,3.675286,243.2931,0,0,1
292.6458,3.570662,212.4814,0,0,1
297.0786,3.177336,174.739,0,0,1
312.6162,2.490871,126.0121,0,0,1
396.89,0.0741272,19.4571,0,0,1
376.1819,0.0741272,-26.05304,0,0,1
278.7004,2.136434,8.685668,1,0.92,0.016
544.087,5.054076,338.1104,0,0,1
106.2543,8.930397,311.8306,1,0,1
101.6509,8.929115,301.4022,1,0,1
352.7847,6.352406,231.1694,0,0,1
372.2612,5.985763,185.4464,0,0,1
455.099,4.889633,102.8364,0,0,1
379.7699,5.509541,86.96364,0,0,1
414.5919,4.860174,6.701141,0,0,1
421.9445,4.491872,-66.06689,0,0,1
277.2231,6.125124,10.22983,1,0.92,0.016
549.6256,10.07413,338.3134,0,0,1
106.0036,10.07413,311.8423,1,0,1
101.4782,10.07413,301.4258,1,0,1
357.1565,10.07413,230.1475,0,0,1
378.1062,10.07413,183.4616,0,0,1
461.657,10.07413,99.85233,0,0,1
440.4325,10.07413,51.68948,0,0,1
419.1791,10.07413,3.395528,0,0,1
426.2035,10.07413,-69.79089,0,0,1
277.2231,10.07413,10.22982,1,0.92,0.016
554.9826,15.1917,338.5096,0,0,1
105.7539,11.2132,311.8539,1,0,1
101.306,11.21581,301.4492,1,0,1
361.7878,13.88651,229.0649,0,0,1
484.1519,15.33828,147.4516,0,0,1
467.9413,15.39971,96.99285,0,0,1
444.0708,15.37884,49.5739,0,0,1
423.3892,15.39441,0.3617704,0,0,1
429.2805,15.74972,-72.48138,0,0,1
278.4494,14.0396,8.948022,1,0.92,0.016
561.0761,20.41834,338.7329,0,0,1
105.7247,12.35174,311.8553,1,0,1
101.2867,12.35712,301.4518,1,0,1
505.5835,20.59498,195.4528,0,0,1
489.4693,20.7142,145.646,0,0,1
522.8491,21.9318,72.0086,0,0,1
447.7029,20.76716,47.46187,0,0,1
432.1187,21.49754,-74.96301,0,0,1
281.3193,18.08217,5.948221,1,0.92,0.016
636.8915,27.62616,341.5109,0,0,1
105.8398,13.49375,311.8499,1,0,1
101.3659,13.50092,301.441,1,0,1
496.4822,26.25531,143.2646,0,0,1
526.4092,27.97797,70.38864,0,0,1
455.3129,26.37646,43.03688,0,0,1
435.1558,27.32517,-77.61853,0,0,1
278.0367,21.95393,9.379344,1,0.92,0.016
105.955,14.6379,311.8445,1,0,1
101.4453,14.64625,301.4302,1,0,1
439.0244,33.2724,-81.00122,0,0,1
277.9464,25.90901,9.473797,1,0.92,0.016
186.8186,0.0741272,247.6991,0,0,1
172.7332,0.0741272,233.5003,0,0,1
158.6479,0.0741272,219.3016,0,0,1
144.5626,0.0741272,205.1028,0,0,1
130.4773,0.0741272,190.9041,0,0,1
116.392,0.0741272,176.7054,0,0,1
102.3067,0.07412624,162.5066,0,0,1
88.22137,0.0741272,148.3079,0,0,1
74.13606,0.0741272,134.1092,0,0,1
60.05075,0.0741272,119.9104,0,0,1
239.9221,0.07412624,230.2342,0,0,1
222.3154,0.07412624,212.4858,0,0,1
204.7088,0.0741272,194.7374,0,0,1
187.1021,0.0741272,176.9889,0,0,1
169.4955,0.0741272,159.2405,0,0,1
151.8888,0.0741272,141.4921,0,0,1
134.2822,0.0741272,123.7437,0,0,1
116.6756,0.0741272,105.9953,0,0,1
99.06895,0.0741272,88.24678,0,0,1
81.4623,0.0741272,70.49841,0,0,1
287.0983,1.241551,214.7187,0,0,1
287.7015,0.5960112,184.773,0,0,1
281.4768,0.07412815,153.797,0,0,1
258.0013,0.07412815,130.1324,0,0,1
216.6035,0.7631245,121.012,0,0,1
211.0503,0.0741272,82.80328,0,0,1
187.5747,0.07412624,59.13876,0,0,1
164.0992,0.0741272,35.47418,0,0,1
140.6237,0.0741272,11.80965,0,0,1
117.1482,0.07412714,-11.8548,0,0,1
293.7811,4.059898,212.5209,0,0,1
295.5683,3.596722,181.4388,0,0,1
304.7489,2.902213,141.386,0,0,1
399.7997,0.07412624,36.41939,0,0,1
364.5864,0.0741272,0.9225607,0,0,1
329.3731,0.07412732,-34.57416,0,0,1
294.1598,0.0741272,-70.07104,0,0,1
258.9465,0.07412696,-105.5678,0,0,1
223.7332,0.07412696,-141.0647,0,0,1
137.6123,2.45171,-59.08044,1,0,0
373.1304,6.319893,186.4242,0,0,1
382.6847,5.956918,144.516,0,0,1
308.5782,6.446602,139.3438,0,0,1
420.5924,4.829734,22.67769,0,0,1
406.6881,4.534612,-33.24329,0,0,1
380.2698,4.357208,-85.06421,0,0,1
372.126,3.854973,-164.5871,0,0,1
348.394,3.502346,-238.5803,0,0,1
184.6737,5.857423,-69.21739,1,0,0
136.5166,6.288489,-56.55193,1,0,0
378.9118,10.07413,184.5228,0,0,1
461.5258,10.07413,111.1006,0,0,1
314.251,10.07413,136.3186,0,0,1
425.2675,10.07413,19.5879,0,0,1
410.501,10.07413,-36.33752,0,0,1
419.5281,10.07413,-124.0091,0,0,1
425.7523,10.07413,-229.5967,0,0,1
356.1261,10.07413,-250.0781,0,0,1
182.0105,10.07413,-64.31857,1,0,0
135.6741,10.07412,-54.60764,1,0,0
484.4063,14.87609,149.8274,0,0,1
467.6653,15.0483,108.4985,0,0,1
451.4267,15.2523,63.16285,0,0,1
429.5441,15.42374,16.76154,0,0,1
413.6282,15.70258,-38.87518,0,0,1
421.9233,16.37777,-126.3849,0,0,1
431.9702,17.22906,-237.1343,0,0,1
364.8326,16.93477,-263.0252,0,0,1
183.6086,14.26948,-67.25826,1,0,0
135.413,13.83398,-54.00513,1,0,0
489.4066,19.77221,148.1829,0,0,1
473.6105,20.14238,105.9788,0,0,1
454.5042,20.49729,61.52159,0,0,1
450.9889,21.27746,2.589017,0,0,1
416.7032,21.40983,-41.37061,0,0,1
424.5096,22.75427,-128.9507,0,0,1
438.1141,24.57615,-244.5826,0,0,1
369.9425,23.975,-270.6238,0,0,1
182.6992,18.42834,-65.58543,1,0,0
135.0418,17.57649,-53.14845,1,0,0
495.2573,24.78652,146.2587,0,0,1
457.595,25.80953,59.87328,0,0,1
458.9809,27.16094,-2.692749,0,0,1
439.8859,27.96891,-60.18359,0,0,1
426.532,29.1798,-130.9569,0,0,1
373.5914,31.11778,-276.0499,0,0,1
177.3285,22.28234,-55.70635,1,0,0
134.8574,21.31475,-52.72297,1,0,0
463.2326,31.29945,56.86671,0,0,1
464.1565,33.09987,-6.113281,0,0,1
428.2414,35.64466,-132.6526,0,0,1
179.0315,26.48835,-58.8389,1,0,0
134.8372,25.05975,-52.67633,1,0,0
151.9045,0.0741272,190.3545,0,0,1
134.3722,0.0741272,180.7306,0,0,1
116.8399,0.0741272,171.1069,0,0,1
99.30759,0.0741272,161.483,0,0,1
81.77528,0.0741272,151.8592,0,0,1
64.24297,0.0741272,142.2353,0,0,1
46.71066,0.07412672,132.6115,0,0,1
29.17834,0.0741272,122.9877,0,0,1
11.64602,0.0741272,113.3638,0,0,1
-5.88623,0.0741272,103.74,0,0,1
197.8795,0.0741272,158.5535,0,0,1
175.9641,0.0741272,146.5237,0,0,1
154.0487,0.0741272,134.4939,0,0,1
132.1333,0.07412624,122.4641,0,0,1
110.2179,0.0741272,110.4344,0,0,1
88.30254,0.0741272,98.40457,0,0,1
66.38715,0.0741272,86.37479,0,0,1
44.47175,0.07412672,74.34498,0,0,1
22.55637,0.0741272,62.3152,0,0,1
0.6409637,0.0741272,50.2854,0,0,1
274.5044,0.07412815,105.5519,0,0,1
245.284,0.07412624,89.51214,0,0,1
216.0634,0.0741272,73.47238,0,0,1
186.8429,0.0741272,57.43268,0,0,1
157.6224,0.07412624,41.39297,0,0,1
128.4018,0.0741272,25.35322,0,0,1
99.18131,0.0741272,9.313554,0,0,1
69.96078,0.07412714,-6.726074,0,0,1
40.74026,0.07412732,-22.76581,0,0,1
11.51973,0.07412732,-38.80554,0,0,1
407.6721,0.5109339,13.43945,0,0,1
383.9236,0.0741272,-24.51099,0,0,1
284.889,1.557747,5.749014,1,0.92,0.016
296.262,0.0741272,-72.63007,0,0,1
252.4312,0.0741272,-96.6897,0,0,1
180.7077,1.233445,-69.93552,1,0,0
129.9671,1.842864,-63.02832,1,0,0
120.9389,0.0741272,-168.8684,0,0,1
77.10809,0.0741272,-192.928,0,0,1
33.27728,0.0741272,-216.9875,0,0,1
415.325,5.209302,8.145899,0,0,1
406.8108,4.798986,-43.33441,0,0,1
280.5698,5.873978,9.999112,1,0.92,0.016
372.2628,3.916486,-162.9698,0,0,1
348.9372,3.377627,-237.2441,0,0,1
178.0295,5.709444,-65.05656,1,0,0
128.8332,5.98731,-60.3638,1,0,0
100.633,5.738002,-104.2832,1,0,0
95.44291,4.233877,-278.7153,0,0,1
41.1775,4.468956,-281.686,0,0,1
419.4801,10.07413,5.271882,0,0,1
413.3806,10.07413,-48.73767,0,0,1
280.5698,10.07413,9.999112,1,0.92,0.016
429.1946,10.07413,-230.6428,0,0,1
356.2232,10.07413,-247.8557,0,0,1
175.6147,10.07413,-60.65721,1,0,0
128.0623,10.07413,-58.55231,1,0,0
99.02039,10.07413,-99.15404,1,0,0
96.69312,10.07413,-284.5649,0,0,1
41.98908,10.07413,-288.3324,0,0,1
423.0945,15.02345,2.771705,0,0,1
435.6424,15.69587,-67.04675,0,0,1
284.0338,14.32083,6.590522,1,0.92,0.016
434.9297,17.18631,-237.46,0,0,1
365.1263,17.05522,-260.8225,0,0,1
172.4332,14.32251,-54.86133,1,0,0
128.7195,14.15806,-60.09676,1,0,0
97.89253,14.32065,-95.56679,1,0,0
97.8445,16.02444,-289.9521,0,0,1
42.9671,15.81639,-296.3419,0,0,1
427.791,20.07492,-0.4766235,0,0,1
439.1118,21.40103,-69.90015,0,0,1
424.7605,22.3496,-131.8824,0,0,1
440.6822,24.47373,-244.2977,0,0,1
371.5971,24.26382,-270.2469,0,0,1
172.1304,18.55831,-54.30973,1,0,0
126.3068,18.11936,-54.42723,1,0,0
97.26385,18.52608,-93.56713,1,0,0
282.4225,22.74926,8.176033,1,0.92,0.016
376.092,31.59571,-276.7934,0,0,1
172.0701,22.79661,-54.19984,1,0,0
126.5903,22.1636,-55.09338,1,0,0
97.07822,22.73384,-92.97665,1,0,0
282.4225,26.97431,8.176007,1,0.92,0.016
162.4932,23.74998,34.29883,0,1,0
172.337,27.05966,-54.6861,1,0,0
126.6415,26.19863,-55.21373,1,0,0
97.26965,26.97878,-93.58557,1,0,0
108.5456,0.0741272,148.3165,0,0,1
89.16058,0.0741272,143.3948,0,0,1
69.77558,0.0741272,138.4733,0,0,1
50.39059,0.0741272,133.5517,0,0,1
31.00559,0.07412672,128.6301,0,0,1
11.6206,0.0741272,123.7085,0,0,1
-7.764343,0.0741272,118.7869,0,0,1
-27.14929,0.0741272,113.8653,0,0,1
-46.5343,0.0741272,108.9438,0,0,1
-65.91931,0.0741272,104.0222,0,0,1
145.0808,0.0741272,106.0059,0,0,1
120.8495,0.0741272,99.85392,0,0,1
96.61833,0.07412672,93.70191,0,0,1
72.38705,0.0741272,87.54999,0,0,1
48.1558,0.0741272,81.39798,0,0,1
23.92456,0.0741272,75.24602,0,0,1
-0.3065796,0.0741272,69.09405,0,0,1
-24.53784,0.0741272,62.94206,0,0,1
-48.7691,0.0741272,56.79002,0,0,1
-73.00037,0.07412624,50.63805,0,0,1
205.9728,0.0741272,35.48843,0,0,1
173.6645,0.07412624,27.28572,0,0,1
141.3562,0.0741272,19.08308,0,0,1
109.0478,0.0741272,10.88049,0,0,1
76.7395,0.0741272,2.677828,0,0,1
44.43118,0.0741272,-5.524719,0,0,1
12.12285,0.0741272,-13.72729,0,0,1
-21.71107,0.9504087,7.818613,1,0.92,0.016
-52.49371,0.0741272,-30.13263,0,0,1
-84.80206,0.0741272,-38.33527,0,0,1
327.7569,0.07412744,-105.5465,0,0,1
279.2944,0.07412696,-117.8504,0,0,1
230.8319,0.0741272,-130.1545,0,0,1
136.2844,2.169235,-46.08001,1,0,0
108.3824,1.562418,-84.46739,1,0,0
85.4444,0.07412744,-167.0663,0,0,1
36.98191,0.07412744,-179.3704,0,0,1
-21.8108,4.029839,9.763403,1,0.92,0.016
-59.94299,0.0741272,-203.9783,0,0,1
-108.4055,0.0741272,-216.2822,0,0,1
374.7643,4.430811,-159.9846,0,0,1
165.9682,6.862247,37.86046,0,1,0
307.3779,3.648303,-257.8264,0,0,1
143.6893,5.953367,-61.56606,1,0,0
107.2049,5.852601,-81.22472,1,0,0
113.7712,3.923002,-278.6391,0,0,1
52.3,4.047132,-281.4389,0,0,1
-21.85432,7.060314,10.61199,1,0.92,0.016
-63.35626,4.310458,-283.6345,0,0,1
-116.9464,4.471046,-280.6722,0,0,1
437.2735,10.07413,-232.3748,0,0,1
362.7442,10.07413,-232.5114,0,0,1
312.7314,10.07413,-266.7556,0,0,1
142.3745,10.07412,-58.81642,1,0,0
106.1121,10.07413,-78.21503,1,0,0
115.3413,10.07413,-284.8231,0,0,1
53.3455,10.07413,-288.4055,0,0,1
-21.85432,10.07413,10.61199,1,0.92,0.016
-63.60327,10.07413,-289.3997,0,0,1
-117.6736,10.07413,-286.1548,0,0,1
441.8335,16.63531,-237.6557,0,0,1
367.7383,16.46963,-239.3732,0,0,1
315.8337,16.65746,-271.9299,0,0,1
139.0972,14.09052,-51.96252,1,0,0
105.3223,14.24077,-76.03996,1,0,0
116.9643,16.35501,-291.2159,0,0,1
54.76074,16.2661,-297.8355,0,0,1
-21.79534,13.09923,9.461837,1,0.92,0.016
-63.82776,15.94328,-294.6371,0,0,1
-118.2453,15.76893,-290.4648,0,0,1
446.3789,23.32091,-242.9196,0,0,1
318.8529,23.35327,-276.9658,0,0,1
138.6904,18.0884,-51.1117,1,0,0
104.8769,18.38144,-74.81331,1,0,0
-21.6947,16.16288,7.499303,1,0.92,0.016
-118.7589,21.53626,-294.3366,0,0,1
322.9827,30.22361,-283.8539,0,0,1
138.4882,22.08174,-50.68871,1,0,0
104.6984,22.51948,-74.3217,1,0,0
-21.70357,19.20215,7.67248,1,0.92,0.016
-119.2701,27.37562,-298.1909,0,0,1
138.3811,26.07456,-50.46475,1,0,0
104.7852,26.67806,-74.56073,1,0,0
-21.80131,22.16998,9.57828,1,0.92,0.016
-119.8917,33.31832,-302.8765,0,0,1
51.89638,0.0741272,115.5564,0,0,1
31.90054,0.07412767,115.9652,0,0,1
11.90473,0.07412744,116.3739,0,0,1
-8.091064,0.0741272,116.7827,0,0,1
-28.08691,0.07412815,117.1915,0,0,1
-48.0827,0.0741272,117.6002,0,0,1
-68.07855,0.07412815,118.009,0,0,1
-88.0744,0.0741272,118.4177,0,0,1
-108.0702,0.07412624,118.8265,0,0,1
-128.066,0.0741272,119.2352,0,0,1
75.86927,0.0741272,65.05586,0,0,1
50.87449,0.0741272,65.56683,0,0,1
25.8797,0.0741272,66.07776,0,0,1
0.8849036,0.0741272,66.58875,0,0,1
-24.1098,0.0741272,67.09972,0,0,1
-49.10461,0.0741272,67.61063,0,0,1
-74.09943,0.0741272,68.1216,0,0,1
-99.09418,0.0741272,68.63253,0,0,1
-124.089,0.0741272,69.14346,0,0,1
-149.0838,0.0741272,69.65442,0,0,1
115.8241,0.0741272,-19.11157,0,0,1
82.4977,0.07412726,-18.43024,0,0,1
49.17134,0.07412726,-17.74908,0,0,1
15.84493,0.0741272,-17.06775,0,0,1
-19.3378,0.7742754,6.994529,1,0.92,0.016
-50.8078,0.07412714,-15.70526,0,0,1
-84.13409,0.0741272,-15.0238,0,0,1
-117.4605,0.0741272,-14.34265,0,0,1
-150.787,0.0741272,-13.66144,0,0,1
-152.9679,2.296923,60.49182,0,1,0
135.3389,2.593422,-60.22103,1,0,0
107.7356,2.077328,-85.46696,1,0,0
95.75456,0.0741272,-185.4029,0,0,1
45.76498,0.0741272,-184.381,0,0,1
-19.50416,3.916053,9.089747,1,0.92,0.016
-54.21417,0.0741272,-182.3372,0,0,1
-104.2037,0.0741272,-181.3151,0,0,1
-128.4249,2.412494,-63.87736,1,0,0
-166.1071,2.451077,-61.17758,1,0,0
-152.4714,4.912939,61.66294,0,1,0
133.9776,6.362168,-57.35323,1,0,0
106.4441,6.109761,-82.03648,1,0,0
121.7679,4.143417,-279.0251,0,0,1
62.84182,4.122879,-279.8748,0,0,1
-19.58132,7.004792,10.0617,1,0.92,0.016
-56.26465,4.070837,-282.6451,0,0,1
-116.1652,4.080787,-280.4256,0,0,1
-127.7429,6.274256,-60.79628,1,0,0
-164.7341,6.305451,-56.9194,1,0,0
-152.3585,7.496216,61.92931,0,1,0
133.558,10.07413,-56.4694,1,0,0
105.4133,10.07413,-79.29861,1,0,0
123.5145,10.07413,-285.3114,0,0,1
64.05488,10.07413,-286.6581,0,0,1
-19.58132,10.07413,10.0617,1,0.92,0.016
-56.39417,10.07413,-288.9811,0,0,1
-116.8781,10.07413,-286.3323,0,0,1
-127.3354,10.07413,-58.95493,1,0,0
-163.952,10.07412,-54.49369,1,0,0
-154.1187,10.07413,57.77697,0,1,0
132.6757,13.75893,-54.61073,1,0,0
104.6378,13.9909,-77.23856,1,0,0
124.8781,16.11611,-290.2186,0,0,1
65.32121,16.16349,-293.7394,0,0,1
-19.48185,13.15597,8.808805,1,0.92,0.016
-56.50293,16.19402,-294.3029,0,0,1
-117.4272,16.17227,-290.8824,0,0,1
-127.5824,13.86672,-60.07091,1,0,0
-163.3901,13.80085,-52.7508,1,0,0
-294.9386,16.04393,-274.417,0,0,1
132.244,17.42573,-53.70126,1,0,0
104.2075,17.88499,-76.09573,1,0,0
126.1515,22.24922,-294.8018,0,0,1
-19.31407,16.28,6.695586,1,0.92,0.016
-117.9189,22.35208,-294.956,0,0,1
-126.3565,17.54806,-54.53242,1,0,0
-163.0062,17.5036,-51.56023,1,0,0
-296.8332,22.10388,-278.8864,0,0,1
132.0368,21.08857,-53.26474,1,0,0
103.9941,21.77355,-75.52894,1,0,0
127.7902,28.51267,-300.6996,0,0,1
-19.34405,19.37162,7.073219,1,0.92,0.016
-94.9082,22.7583,-104.2948,1,0,0
-126.51,21.30591,-55.22594,1,0,0
-134.8146,18.57848,35.87732,0,1,0
131.9936,24.75644,-53.17383,1,0,0
104.0103,25.67505,-75.57176,1,0,0
-19.49466,22.39505,8.970144,1,0.92,0.016
-119.0007,34.98937,-303.9196,0,0,1
-126.4938,25.04691,-55.15301,1,0,0
-134.4998,21.37396,36.85368,0,1,0
-34.19476,0.0741272,94.66128,0,0,1
-52.73853,0.0741272,102.1531,0,0,1
-71.28229,0.0741272,109.645,0,0,1
-89.82617,0.0741272,117.1368,0,0,1
-108.3699,0.0741272,124.6288,0,0,1
-126.9137,0.0741272,132.1206,0,0,1
-145.4575,0.0741272,139.6125,0,0,1
-164.0013,0.0741272,147.1043,0,0,1
-182.5451,0.0741272,154.5962,0,0,1
-201.0888,0.0741272,162.0881,0,0,1
-29.74469,0.07412624,38.93694,0,0,1
-52.92444,0.07412624,48.30178,0,0,1
-76.10413,0.0741272,57.66663,0,0,1
-99.28394,0.0741272,67.03147,0,0,1
-122.4636,0.07412815,76.39635,0,0,1
-145.6434,0.0741272,85.76116,0,0,1
-168.8231,0.07412815,95.126,0,0,1
-192.0028,0.0741272,104.4908,0,0,1
-215.1826,0.0741272,113.8556,0,0,1
-238.3624,0.07412624,123.2205,0,0,1
-27.11882,1.689002,6.055009,1,0.92,0.016
-53.23413,0.0741272,-41.45026,0,0,1
-84.1405,0.07412732,-28.96393,0,0,1
-115.0469,0.07412726,-16.47736,0,0,1
-145.9532,0.0741272,-3.990967,0,0,1
-176.8595,0.07412624,8.495331,0,0,1
-207.7658,0.0741272,20.98182,0,0,1
-238.6722,0.0741272,33.46825,0,0,1
-269.5784,0.0741272,45.95467,0,0,1
-300.4847,0.0741272,58.44116,0,0,1
-27.25975,4.515714,7.819743,1,0.92,0.016
-53.85382,0.0741272,-220.9547,0,0,1
-100.2133,0.0741272,-202.225,0,0,1
-124.4766,2.410432,-66.43407,1,0,0
-162.0622,2.264474,-59.12018,1,0,0
-239.2917,0.0741272,-146.0361,0,0,1
-285.6511,0.07412744,-127.3064,0,0,1
-256.0978,2.78515,6.949403,1,0.92,0.016
-368.7704,0.3682578,-77.86395,0,0,1
-310.5248,3.13807,47.97168,0,0,0
-27.30252,7.299726,8.355268,1,0.92,0.016
-54.06732,4.499865,-282.8045,0,0,1
-107.846,4.282649,-284.5045,0,0,1
-123.8834,6.273639,-63.29151,1,0,0
-162.6048,6.150048,-60.97727,1,0,0
-159.3055,7.209396,51.94469,0,1,0
-349.8721,3.699867,-249.5786,0,0,1
-255.2355,6.445036,8.26161,1,0.92,0.016
-492.6727,3.323035,-232.528,0,0,1
-311.2632,6.596212,47.20169,0,0,0
-27.30252,10.07413,8.355268,1,0.92,0.016
-54.08734,10.07413,-288.6136,0,0,1
-108.3024,10.07413,-289.4246,0,0,1
-123.4813,10.07413,-61.16124,1,0,0
-162.1161,10.07413,-59.30463,1,0,0
-289.7973,10.07413,-271.0471,0,0,1
-354.375,10.07413,-258.1517,0,0,1
-255.2355,10.07413,8.261629,1,0.92,0.016
-496.6542,10.07413,-237.4981,0,0,1
-310.2253,10.07413,48.28403,0,0,0
-27.22395,12.85736,7.371465,1,0.92,0.016
-54.10413,15.7476,-293.4902,0,0,1
-108.6619,15.95021,-293.2995,0,0,1
-123.7417,13.86712,-62.54066,1,0,0
-160.3243,13.9173,-53.17279,1,0,0
-291.5859,16.47015,-275.4741,0,0,1
-256.0512,13.71778,7.020253,1,0.92,0.016
-499.7132,16.93308,-241.3165,0,0,1
-314.9222,13.60116,43.38617,0,0,0
-27.08158,15.67258,5.588734,1,0.92,0.016
-54.1264,21.54098,-299.9466,0,0,1
-108.9678,21.88974,-296.5974,0,0,1
-123.7264,17.6585,-62.4599,1,0,0
-160.6483,17.78346,-54.28142,1,0,0
-293.7489,22.98166,-280.8281,0,0,1
-257.2975,17.40595,5.123691,1,0.92,0.016
-502.5782,23.87981,-244.8928,0,0,1
-576.4293,24.14404,-229.3052,0,0,1
-27.03405,18.48783,4.99352,1,0.92,0.016
-109.251,27.88562,-299.6498,0,0,1
-122.5176,21.25897,-56.05574,1,0,0
-133.9966,18.80159,36.9273,0,1,0
-256.1699,21.01145,6.839691,1,0.92,0.016
-505.6458,30.92364,-248.722,0,0,1
-27.1738,21.22958,6.743455,1,0.92,0.016
-109.5594,33.95073,-302.9747,0,0,1
-122.7891,25.04467,-57.49417,1,0,0
-134.2178,21.74212,36.1705,0,1,0
-255.7808,24.62944,7.431818,1,0.92,0.016
-509.2884,38.09669,-253.2689,0,0,1
-124.7442,0.0741272,103.2911,0,0,1
-139.3276,0.0741272,116.9777,0,0,1
-153.9111,0.0741272,130.6644,0,0,1
-168.4944,0.0741272,144.351,0,0,1
-183.0779,0.07412815,158.0376,0,0,1
-197.6613,0.0741272,171.7243,0,0,1
-212.2448,0.07412815,185.4109,0,0,1
-226.8281,0.0741272,199.0975,0,0,1
-241.4116,0.07412624,212.7842,0,0,1
-255.9951,0.0741272,226.4708,0,0,1
-138.3266,0.3749695,57.78199,0,1,0
-158.9608,0.07412624,66.83251,0,0,1
-177.1901,0.0741272,83.94082,0,0,1
-195.4194,0.0741272,101.0492,0,0,1
-213.6486,0.0741272,118.1574,0,0,1
-231.8779,0.0741272,135.2657,0,0,1
-250.1072,0.0741272,152.374,0,0,1
-268.3365,0.0741272,169.4823,0,0,1
-285.9808,0.1000376,186.9299,0,0,1
-288.0516,0.7603321,211.512,0,0,1
-139.2312,2.714886,54.75115,0,1,0
-191.6827,0.07412714,-16.74274,0,0,1
-215.9885,0.0741272,6.068289,0,0,1
-240.2941,0.0741272,28.87931,0,0,1
-264.5999,0.07412624,51.6904,0,0,1
-288.9056,0.0741272,74.50146,0,0,1
-313.2112,0.07412624,97.31249,0,0,1
-305.9353,1.215405,142.6564,0,0,1
-349.9951,0.4670362,149.7958,0,0,1
-365.7904,0.6992674,175.2361,0,0,1
-138.8058,5.194572,56.17654,0,1,0
-257.1266,0.0741272,-183.8934,0,0,1
-293.5851,0.07412696,-149.6768,0,0,1
-254.342,2.885719,6.286998,1,0.92,0.016
-365.0761,0.1207759,-79.38318,0,0,1
-312.488,2.718248,49.37382,0,0,0
-363,2.092469,53.86928,0,0,0
-475.8779,0.07412815,21.40617,0,0,1
-444.0427,1.586588,95.23932,1,0,0
-381.2979,3.506444,167.9998,0,0,1
-139.3647,7.616867,54.30395,0,1,0
-289.3664,4.253073,-266.2372,0,0,1
-344.7084,3.976072,-252.2867,0,0,1
-253.5487,6.494656,7.562898,1,0.92,0.016
-482.9265,3.16995,-233.1216,0,0,1
-313.0391,6.388151,48.78663,0,0,0
-360.9547,6.110308,55.65398,0,0,0
-644.6036,3.041694,-98.97583,0,0,1
-458.243,5.673121,87.00189,1,0,0
-465.322,5.929387,128.7909,1,0,0
-173.2711,10.07413,-59.30208,1,0,0
-291.1693,10.07413,-270.842,0,0,1
-348.3029,10.07413,-259.5009,0,0,1
-253.5486,10.07413,7.562891,1,0.92,0.016
-486.9469,10.07413,-238.3661,0,0,1
-310.4615,10.07413,51.53308,0,0,0
-362.4831,10.07413,54.32038,0,0,0
-649.0466,10.07413,-102.1458,0,0,1
-457.0648,10.07416,87.68526,1,0,0
-463.0649,10.07413,129.8441,1,0,0
-171.9617,13.55084,-54.91489,1,0,0
-292.7357,15.98099,-274.8427,0,0,1
-254.3133,13.6678,6.333101,1,0.92,0.016
-489.932,17.09288,-242.2603,0,0,1
-317.353,13.82316,44.19009,0,0,0
-361.3854,14.04363,55.27813,0,0,0
-652.5342,17.20209,-104.6341,0,0,1
-453.6636,14.42445,89.6583,1,0,0
-465.001,14.21559,128.9407,1,0,0
-171.6687,17.00924,-53.93328,1,0,0
-294.5419,21.97985,-279.4559,0,0,1
-255.6229,17.31011,4.226935,1,0.92,0.016
-492.915,24.20922,-246.1519,0,0,1
-575.3676,25.11282,-230.7302,0,0,1
-369.653,18.23143,48.06417,0,0,0
-655.7289,24.40702,-106.9135,0,0,1
-454.386,18.79074,89.23927,1,0,0
-463.6869,18.33011,129.5539,1,0,0
-171.7597,20.48534,-54.23828,1,0,0
-254.4908,20.86503,6.047643,1,0.92,0.016
-496.2752,31.44164,-250.5352,0,0,1
-659.044,31.69326,-109.2786,0,0,1
-452.3109,23.08011,90.44299,1,0,0
-458.6299,22.30266,131.9136,1,0,0
-171.6344,23.94004,-53.81828,1,0,0
-254.0706,24.43078,6.723444,1,0.92,0.016
-499.8982,38.80116,-255.2614,0,0,1
-664.0098,39.13891,-112.8217,0,0,1
-450.1694,27.32059,91.6853,1,0,0
-460.1947,26.44297,131.1834,1,0,0
-194.3539,0.0741272,133.077,0,0,1
-204.0581,0.0741272,150.565,0,0,1
-213.7622,0.0741272,168.053,0,0,1
-223.4664,0.0741272,185.541,0,0,1
-233.1705,0.0741272,203.029,0,0,1
-242.8747,0.0741272,220.517,0,0,1
-252.5789,0.0741272,238.0049,0,0,1
-260.7822,0.1513748,255.9724,0,0,1
-271.9871,0.0741272,272.9809,0,0,1
-281.6913,0.0741272,290.4689,0,0,1
-225.9437,0.0741272,86.95665,0,0,1
-238.0739,0.07412624,108.8166,0,0,1
-250.2042,0.0741272,130.6766,0,0,1
-262.3343,0.0741272,152.5366,0,0,1
-274.4645,0.0741272,174.3966,0,0,1
-284.7852,0.1569033,197.2607,0,0,1
-287.8864,0.5438719,222.7878,0,0,1
-293.7468,0.7785778,245.4418,0,0,1
-307.2851,0.6898422,265.2674,0,0,1
-329.8037,0.2729788,284.3698,0,0,1
-278.5933,0.07412815,10.0894,0,0,1
-294.7668,0.0741272,39.23604,0,0,1
-310.9405,0.07412815,68.38271,0,0,1
-327.1141,0.0741272,97.52932,0,0,1
-310.4613,1.266545,149.4371,0,0,1
-356.6805,0.1695309,157.3656,0,0,1
-365.3817,0.4074135,189.3882,0,0,1
-355.2182,1.204106,225.8047,0,0,1
-342.9148,1.987941,257.4814,0,0,1
-336.8845,2.524457,283.4722,0,0,1
-376.4618,0.3093534,-132.7963,0,0,1
-389.8482,0.6122479,-77.45953,0,0,1
-323.7847,3.054996,55.20908,0,0,0
-456.6737,0.0741272,-12.48511,0,0,1
-480.9341,0.0741272,31.23471,0,0,1
-444.0427,1.472842,108.8879,1,0,0
-481.1706,1.120464,139.4844,1,0,0
-544.9824,0.2539177,165.1842,0,0,1
-340.5847,4.729027,257.9906,1,0.92,0.016
-342.4641,4.936574,282.7649,0,0,1
-448.3845,4.053355,-237.8017,0,0,1
-517.614,3.465152,-234.2692,0,0,1
-323.1179,6.573709,55.89295,0,0,0
-635.478,2.773972,-164.3155,0,0,1
-648.4689,3.045562,-84.93048,0,0,1
-461.566,5.573083,99.16414,1,0,0
-478.2985,5.628417,140.7223,1,0,0
-695.2031,3.617651,117.1961,0,0,1
-339.9278,7.408018,258.1341,1,0.92,0.016
-349.6544,7.438056,281.8534,0,0,1
-451.475,10.07413,-242.3138,0,0,1
-521.8908,10.07413,-239.5182,0,0,1
-323.8061,10.07413,55.1871,0,0,0
-640.0643,10.07413,-168.21,0,0,1
-652.2733,10.07413,-87.56848,0,0,1
-461.566,10.07413,99.16414,1,0,0
-475.2923,10.07413,142.0179,1,0,0
-707.2859,10.07413,113.3362,0,0,1
-339.9278,10.07413,258.1342,1,0.92,0.016
-492.9071,10.07413,263.6937,0,0,1
-453.6363,16.17802,-245.4694,0,0,1
-524.6334,16.78628,-242.8845,0,0,1
-322.8399,13.57072,56.17811,0,0,0
-643.7304,17.48044,-171.3229,0,0,1
-655.1537,17.18363,-89.56561,0,0,1
-461.566,14.57518,99.16414,1,0,0
-473.192,14.46452,142.9231,1,0,0
-718.8157,16.77367,109.653,0,0,1
-341.4281,12.75495,257.8063,1,0.92,0.016
-502.123,14.13716,262.5255,0,0,1
-455.646,22.34554,-248.4036,0,0,1
-527.1418,23.57218,-245.963,0,0,1
-331.7009,17.31047,47.08992,0,0,0
-648.3995,25.00688,-175.2877,0,0,1
-657.8407,24.35821,-91.42877,0,0,1
-461.566,19.07623,99.16412,1,0,0
-471.9705,18.82843,143.4496,1,0,0
-344.2572,15.49124,257.188,1,0.92,0.016
-698.8634,21.88281,237.5853,0,0,1
-457.8785,28.58726,-251.6629,0,0,1
-529.7095,30.43443,-249.1143,0,0,1
-334.6053,21.04819,44.11093,0,0,0
-660.5161,31.59744,-93.28381,0,0,1
-461.566,23.57727,99.16412,1,0,0
-471.5771,23.19278,143.6191,1,0,0
-345.6732,18.24145,256.8786,1,0.92,0.016
-701.9868,27.87485,237.1893,0,0,1
-533.1405,37.42292,-253.3251,0,0,1
-663.3862,38.91088,-95.27393,0,0,1
-449.7885,27.53955,105.6996,1,0,0
-471.9397,27.58139,143.4628,1,0,0
-342.9476,20.85699,257.4742,1,0.92,0.016
-706.2512,33.96807,236.6488,0,0,1
-242.1906,0.0741272,173.483,0,0,1
-247.1346,0.0741272,192.8623,0,0,1
-252.0786,0.0741272,212.2416,0,0,1
-257.0226,0.0741272,231.6208,0,0,1
-258.8635,0.2384539,252.131,0,0,1
-266.9108,0.0741272,270.3794,0,0,1
-271.8548,0.0741272,289.7587,0,0,1
-276.7989,0.0741272,309.138,0,0,1
-281.7429,0.0741272,328.5173,0,0,1
-282.5581,0.2674532,347.3538,0,0,1
-284.4587,0.07412624,136.8988,0,0,1
-290.6387,0.07412624,161.1229,0,0,1
-287.3086,0.499259,191.0638,0,0,1
-288.7676,0.6931973,216.3962,0,0,1
-293.2145,0.7504091,239.6129,0,0,1
-301.5792,0.6429739,261.5348,0,0,1
-321.1214,0.09093857,282.3065,0,0,1
-327.719,0.0741272,306.4675,0,0,1
-333.8992,0.0741272,330.6916,0,0,1
-340.0792,0.0741272,354.9157,0,0,1
-341.9946,0.5323057,87.09984,0,0,1
-314.9118,1.737204,143.4139,0,0,1
-361.0325,0.4212399,146.7463,0,0,1
-365.0425,0.5499163,179.8155,0,0,1
-373.1959,0.5402117,210.4663,0,0,1
-338.1193,1.86945,252.2127,1,0.92,0.016
-333.5779,2.210664,280.4224,0,0,1
-397.1516,0.5287952,302.8262,0,0,1
-409.9285,0.3875437,333.8612,0,0,1
-429.0662,0.0741272,366.6143,0,0,1
-495.7993,0.0741272,-46.02222,0,0,1
-508.1595,0.0741272,2.425909,0,0,1
-444.0428,1.78348,96.84637,1,0,0
-381.2149,3.372897,172.0594,0,0,1
-545.2399,0.0741272,147.7705,0,0,1
-336.5045,4.637671,252.6246,1,0.92,0.016
-339.8987,4.7046,279.4663,0,0,1
-467.8201,2.322744,299.12,0,0,1
-544.5295,1.035677,339.4726,0,0,1
-467.9666,2.678888,371.7282,1,0,0
-634.9888,3.427622,-166.4945,0,0,1
-645.1669,3.49948,-97.53082,0,0,1
-459.8901,5.751698,87.32005,1,0,0
-466.865,5.792051,130.9822,1,0,0
-691.9045,3.520876,94.3233,0,0,1
-336.0753,7.360329,252.7341,1,0.92,0.016
-347.8377,7.309469,278.2654,0,0,1
-685.3076,4.062865,287.714,0,0,1
-635.9355,4.678632,343.2832,0,0,1
-464.8503,6.405692,371.3185,1,0,0
-638.944,10.07413,-169.9178,0,0,1
-649.1274,10.07413,-100.4204,0,0,1
-458.9975,10.07412,87.85667,1,0,0
-464.3947,10.07413,132.167,1,0,0
-701.9326,10.07413,90.66891,0,0,1
-336.0753,10.07413,252.7341,1,0.92,0.016
-452.5359,10.07413,262.4286,0,0,1
-689.9188,10.07413,287.4722,0,0,1
-694.4564,10.07413,345.7229,0,0,1
-462.5709,10.07413,371.0188,1,0,0
-642.2549,16.80659,-172.7835,0,0,1
-652.3032,16.73079,-102.7373,0,0,1
-455.7398,14.35018,89.81488,1,0,0
-466.4353,14.35153,131.1883,1,0,0
-708.8572,16.80692,88.14545,0,0,1
-336.9588,12.79704,252.5087,1,0.92,0.016
-495.7821,14.32763,255.8871,0,0,1
-693.4872,16.16571,287.285,0,0,1
-697.5289,16.06009,345.851,0,0,1
-462.8778,13.7241,371.0592,1,0,0
-646.0947,23.62989,-176.107,0,0,1
-655.2456,23.4551,-104.884,0,0,1
-456.4451,18.64198,89.39091,1,0,0
-465.069,18.59922,131.8436,1,0,0
-338.5898,15.55363,252.0926,1,0.92,0.016
-505.8546,18.78387,254.3636,0,0,1
-696.8824,22.32397,287.107,0,0,1
-700.5543,22.10407,345.9771,0,0,1
-462.8778,17.37406,371.0592,1,0,0
-658.1938,30.24723,-107.0349,0,0,1
-454.5408,22.86206,90.53574,1,0,0
-460.0323,22.69743,134.2592,1,0,0
-339.3188,18.31594,251.9066,1,0.92,0.016
-698.8021,28.96395,225.1781,0,0,1
-700.7723,28.56347,286.903,0,0,1
-703.9946,28.21797,346.1205,0,0,1
-462.8778,21.02403,371.0592,1,0,0
-661.8173,37.13818,-109.6785,0,0,1
-449.9319,26.91868,93.30618,1,0,0
-461.6876,26.97722,133.4653,1,0,0
-337.7198,20.99721,252.3146,1,0.92,0.016
-703.5084,35.45001,224.4662,0,0,1
-458.8506,24.52315,370.5298,1,0,0
-277.7524,0.0741272,224.3725,0,0,1
-277.6667,0.0741272,244.3723,0,0,1
-277.5811,0.0741272,264.3722,0,0,1
-277.4954,0.0741272,284.372,0,0,1
-277.4097,0.0741272,304.3718,0,0,1
-277.324,0.0741272,324.3716,0,0,1
-276.9249,0.08981228,344.3387,0,0,1
-274.0206,0.2308683,363.7309,0,0,1
-275.7841,0.1383581,383.9802,0,0,1
-274.9684,0.1749496,403.5557,0,0,1
-297.736,1.276484,214.4875,0,0,1
-301.0054,1.14217,235.1527,0,0,1
-303.8279,1.025591,256.6205,0,0,1
-320.6863,0.3479509,275.9261,0,0,1
-327.4307,0.0741272,299.586,0,0,1
-327.3235,0.0741272,324.5858,0,0,1
-327.2166,0.0741272,349.5856,0,0,1
-300.564,1.136863,369.1579,0,0,1
-283.6389,1.810911,386.3734,0,0,1
-286.3076,1.700435,408.1478,0,0,1
-369.7203,1.320965,178.88,0,0,1
-378.2628,1.061378,204.6329,0,0,1
-337.4094,2.281564,246.7026,1,0.92,0.016
-335.0224,2.349781,273.1227,0,0,1
-396.4413,0.5046749,292.9834,0,0,1
-401.5634,0.3469143,324.9038,0,0,1
-410.5134,0.0741272,358.2758,0,0,1
-410.3707,0.0741272,391.6088,0,0,1
-287.9108,3.748393,387.6749,0,0,1
-410.085,0.0741272,458.2748,0,0,1
-469.2477,2.252368,129.648,1,0,0
-574.3951,0.1496563,127.1529,0,0,1
-335.4722,4.917781,247.2748,1,0.92,0.016
-343.1727,4.761693,271.5289,0,0,1
-479.142,2.041173,285.071,0,0,1
-530.4556,1.01145,325.4559,0,0,1
-474.3412,2.130351,364.9347,1,0,0
-461.566,2.382672,402.076,1,0,0
-291.9672,5.775738,388.9108,0,0,1
-572.3104,0.1573534,523.9725,0,0,1
-466.5118,6.190553,131.0013,1,0,0
-689.9198,3.958611,81.51604,0,0,1
-335.1373,7.4993,247.3737,1,0.92,0.016
-353.2128,7.317595,269.5655,0,0,1
-532.1026,5.528265,280.0039,0,0,1
-546.7744,5.379599,325.5258,0,0,1
-469.5792,6.149881,364.4379,1,0,0
-461.566,6.228401,402.076,1,0,0
-296.9415,7.875126,390.4263,0,0,1
-643.472,4.402896,552.7913,0,0,1
-464.3418,10.07413,132.0747,1,0,0
-517.4561,10.07413,149.646,1,0,0
-335.1373,10.07413,247.3737,1,0.92,0.016
-413.5083,10.07413,257.7748,0,0,1
-697.1843,10.07413,264.2097,0,0,1
-693.3191,10.07413,326.1535,0,0,1
-466.7365,10.07413,364.1413,1,0,0
-461.566,10.07413,402.076,1,0,0
-483.3691,10.07414,447.226,1,0,0
-648.6676,10.07413,554.8954,0,0,1
-466.4817,13.95741,131.0162,1,0,0
-508.1267,14.37481,153.3314,1,0,0
-336.1475,12.65905,247.0753,1,0.92,0.016
-437.8074,13.67589,253.0231,0,0,1
-700.7375,16.30563,263.8697,0,0,1
-696.564,16.26657,326.1674,0,0,1
-466.5312,13.96789,364.1198,1,0,0
-461.566,13.91986,402.076,1,0,0
-477.0934,14.07699,445.314,1,0,0
-653.1113,15.84192,556.695,0,0,1
-465.5135,17.82137,131.4951,1,0,0
-504.2969,18.59902,154.8444,1,0,0
-338.1033,15.28303,246.4977,1,0.92,0.016
-685.9723,22.23675,204.4948,0,0,1
-704.3904,22.61016,263.5202,0,0,1
-699.7682,22.52309,326.1812,0,0,1
-464.3568,17.81814,363.893,1,0,0
-461.566,17.76559,402.076,1,0,0
-473.6186,18.01025,444.2553,1,0,0
-658.3248,21.71416,558.8063,0,0,1
-460.2286,21.53675,134.1093,1,0,0
-503.8672,22.8486,155.0141,1,0,0
-339.5136,17.92974,246.0812,1,0.92,0.016
-688.53,28.39472,203.9946,0,0,1
-709.4985,29.03136,263.0315,0,0,1
-703.4168,28.85703,326.1968,0,0,1
-461.6689,21.60946,363.6126,1,0,0
-461.566,21.61132,402.076,1,0,0
-471.9443,21.92802,443.7452,1,0,0
-461.5049,25.40859,133.478,1,0,0
-504.5674,27.13472,154.7375,1,0,0
-337.6037,20.47197,246.6453,1,0.92,0.016
-691.3336,34.61364,203.4464,0,0,1
-463.2447,25.51764,363.777,1,0,0
-461.566,25.45706,402.076,1,0,0
-472.1922,25.88925,443.8207,1,0,0
-300.1656,0.0741272,288.4344,0,0,1
-294.6307,0.0741272,307.6534,0,0,1
-289.0959,0.0741272,326.8722,0,0,1
-281.2986,0.1854353,345.9029,0,0,1
-274.6884,0.2429399,364.7001,0,0,1
-272.4914,0.0741272,384.5289,0,0,1
-266.9565,0.0741272,403.7478,0,0,1
-261.4217,0.0741272,422.9666,0,0,1
-255.8868,0.0741272,442.1855,0,0,1
-250.3519,0.0741272,461.4044,0,0,1
-331.2966,0.9413824,282.6651,0,0,1
-348.2128,0.0741272,302.2715,0,0,1
-341.2943,0.0741272,326.2951,0,0,1
-334.3757,0.0741272,350.3188,0,0,1
-300.3059,1.172681,369.3811,0,0,1
-282.7795,1.645874,387.4918,0,0,1
-288.0181,1.171425,412.1618,0,0,1
-278.1115,1.336942,431.6089,0,0,1
-299.7829,0.0741272,470.4368,0,0,1
-292.8644,0.0741272,494.4604,0,0,1
-336.84,3.073291,281.6378,0,0,1
-403.1086,1.037347,296.7578,0,0,1
-405.5616,0.7273073,325.5847,0,0,1
-419.0667,0.07412624,357.3649,0,0,1
-409.842,0.0741272,389.3963,0,0,1
-287.2713,3.612707,388.7854,0,0,1
-391.3925,0.0741272,453.4593,0,0,1
-284.4064,3.312706,434.8685,0,0,1
-372.9431,0.07412815,517.5222,0,0,1
-317.9965,1.687367,514.0022,0,0,1
-341.9828,5.313339,280.6847,0,0,1
-477.8058,2.655537,289.2552,0,0,1
-531.9525,1.421554,324.1874,0,0,1
-478.4099,2.239626,362.3019,1,0,0
-461.566,2.361074,398.8475,1,0,0
-291.3359,5.681918,389.9559,0,0,1
-546.9376,0.0741272,515.5986,0,0,1
-428.997,2.373218,509.7394,0,0,0
-519.2634,0.07412624,611.6931,0,0,1
-321.0738,4.410568,516.395,0,0,1
-348.9568,7.630293,279.3922,0,0,1
-692.6078,4.360412,267.6805,0,0,1
-546.6119,5.60742,324.0253,0,0,1
-473.4452,6.205729,361.8888,1,0,0
-461.566,6.217603,398.8476,1,0,0
-296.1329,7.828104,391.3374,0,0,1
-642.7023,4.048007,553.8562,0,0,1
-427.8907,6.235903,509.1665,0,0,0
-589.8571,4.270026,657.1269,0,0,1
-336.2741,7.063573,528.2142,1,0.92,0.016
-445.1522,10.07413,261.5648,0,0,1
-696.6086,10.07413,267.2786,0,0,1
-692.9363,10.07413,322.4077,0,0,1
-469.7153,10.07413,361.5785,1,0,0
-461.566,10.07413,398.8475,1,0,0
-477.857,10.07413,443.6719,1,0,0
-648.2966,10.07413,556.0911,0,0,1
-428.6833,10.07413,509.5769,0,0,0
-595.6158,10.07413,660.8333,0,0,1
-336.2741,10.07413,528.2142,1,0.92,0.016
-494.7855,13.8445,252.3666,0,0,1
-700.014,15.85695,266.9366,0,0,1
-696.0134,15.97193,322.3737,0,0,1
-465.5199,13.86455,361.2295,1,0,0
-461.566,13.93066,398.8476,1,0,0
-471.774,14.14795,441.92,1,0,0
-652.9758,16.21033,557.9604,0,0,1
-431.0461,13.94719,510.8004,0,0,0
-338.0124,13.10513,529.5658,1,0.92,0.016
-502.6146,17.75731,250.9156,0,0,1
-703.4799,21.70446,266.5885,0,0,1
-699.0408,21.92773,322.3402,0,0,1
-464.2636,17.63024,361.1249,1,0,0
-461.566,17.78719,398.8476,1,0,0
-468.3612,18.15074,440.9372,1,0,0
-658.6295,22.46769,560.219,0,0,1
-442.5153,18.07357,516.7394,0,0,0
-693.6787,26.81299,215.5068,0,0,1
-707.8555,27.64213,266.149,0,0,1
-702.34,27.94933,322.3037,0,0,1
-464.9468,21.42847,361.1818,1,0,0
-461.566,21.64371,398.8476,1,0,0
-466.8099,22.14061,440.4904,1,0,0
-445.7746,22.18125,518.4271,0,0,0
-696.5468,32.49697,214.9752,0,0,1
-708.1025,34.12852,322.24,0,0,1
-464.8406,25.20907,361.173,1,0,0
-461.566,25.50025,398.8476,1,0,0
-467.0382,26.17228,440.5562,1,0,0
-337.8313,22.18961,529.425,1,0.92,0.016
-291.856,0.5888128,354.9292,0,0,1
-283.0431,0.5329933,371.2607,0,0,1
-276.7242,0.3476124,388.4868,0,0,1
-271.6979,0.0741272,406.9722,0,0,1
-261.1583,0.0741272,423.9698,0,0,1
-250.6188,0.0741272,440.9673,0,0,1
-240.0792,0.0741272,457.9649,0,0,1
-229.5396,0.0741272,474.9624,0,0,1
-218.9999,0.0741272,491.96,0,0,1
-208.4604,0.0741272,508.9576,0,0,1
-358.9852,0.07412624,361.0816,0,0,1
-293.6103,2.042709,373.124,0,0,1
-283.1353,2.0385,390.2169,0,0,1
-290.8783,1.270992,414.1403,0,0,1
-277.8683,1.333579,432.1527,0,0,1
-293.1126,0.07412624,467.3163,0,0,1
-279.9382,0.0741272,488.5633,0,0,1
-266.7636,0.0741272,509.8102,0,0,1
-253.5892,0.0741272,531.0573,0,0,1
-240.4146,0.0741272,552.3041,0,0,1
-451.7658,0.07412815,369.585,0,0,1
-434.1998,0.0741272,397.9142,0,0,1
-287.2949,3.923607,391.3395,0,0,1
-399.0678,0.0741272,454.5728,0,0,1
-284.1747,3.309103,435.2409,0,0,1
-363.9357,0.0741272,511.2314,0,0,1
-315.0219,1.253833,515.4959,0,0,1
-304.2112,1.065119,544.8672,0,0,1
-297.9567,0.6500788,581.2071,0,0,1
-293.6718,0.0741272,624.5484,0,0,1
-467.9909,3.116003,371.0719,1,0,0
-461.566,2.891444,402.7396,1,0,0
-291.1544,5.897199,392.381,0,0,1
-558.28,0.07412624,514.0735,0,0,1
-434.6063,2.23073,508.9071,0,0,0
-505.582,0.07412815,599.0613,0,0,1
-317.8963,4.121816,517.7025,0,0,1
-307.4311,3.981623,547.8815,0,0,1
-422.5523,0.1892738,722.0411,0,0,1
-365.2626,1.167048,721.6626,0,0,1
-465.0234,6.621721,370.7999,1,0,0
-461.566,6.482789,402.7396,1,0,0
-295.7631,7.939941,393.6247,0,0,1
-645.3258,4.162914,546.6042,0,0,1
-434.1146,6.157884,508.6663,0,0,0
-592.6262,4.049932,653.0343,0,0,1
-555.0837,4.12264,699.7832,0,0,1
-506.4383,4.354779,734.1844,0,0,1
-428.8312,5.040936,729.1384,0,0,1
-378.0103,5.421119,738.9551,0,0,1
-462.8122,10.07413,370.5973,1,0,0
-461.566,10.07413,402.7396,1,0,0
-475.4398,10.07413,442.1131,1,0,0
-650.8978,10.07413,548.6866,0,0,1
-435.4772,10.07414,509.3336,0,0,0
-598.484,10.07413,656.6666,0,0,1
-511.8361,10.07413,739.2377,0,0,1
-432.4232,10.07413,733.1985,0,0,1
-386.9477,10.07413,751.0788,0,0,1
-464.473,13.5216,370.7495,1,0,0
-461.566,13.66547,402.7396,1,0,0
-469.874,13.93567,440.611,1,0,0
-655.8127,16.09512,550.5233,0,0,1
-438.0541,14.03403,510.5956,0,0,0
-606.7728,16.26478,661.8062,0,0,1
-517.0049,15.93541,744.0765,0,0,1
-436.7146,15.22128,738.0492,0,0,1
-464.3953,16.96767,370.7423,1,0,0
-461.566,17.25681,402.7396,1,0,0
-466.7143,17.73449,439.7584,1,0,0
-443.5448,18.11559,513.2844,0,0,0
-464.3176,20.41234,370.7352,1,0,0
-461.566,20.84816,402.7396,1,0,0
-465.2928,21.52233,439.3748,1,0,0
-448.749,22.30932,515.8329,0,0,0
-457.0354,23.59679,370.0678,1,0,0
-461.566,24.4395,402.7396,1,0,0
-465.1793,25.33393,439.3441,1,0,0
-280.8562,0.4496279,420.9034,0,0,1
-270.3262,0.2532349,435.6362,0,0,1
-258.9037,0.0741272,450.7059,0,0,1
-244.0218,0.0741272,464.0674,0,0,1
-229.1398,0.0741272,477.4289,0,0,1
-214.2579,0.0741272,490.7903,0,0,1
-199.376,0.0741272,504.1518,0,0,1
-184.4941,0.0741272,517.5133,0,0,1
-169.6122,0.0741272,530.8748,0,0,1
-132.2405,3.109722,482.8368,0,0,1
-290.2529,2.013157,424.608,0,0,1
-277.9885,1.900041,439.4198,0,0,1
-303.4688,0.0741272,477.8896,0,0,1
-284.8664,0.0741272,494.5914,0,0,1
-266.264,0.07412815,511.2932,0,0,1
-247.6616,0.0741272,527.9951,0,0,1
-229.0592,0.07412815,544.6969,0,0,1
-210.4568,0.0741272,561.3987,0,0,1
-191.8545,0.0741272,578.1006,0,0,1
-133.1191,4.40773,485.2354,0,0,1
-427.3503,0.0741272,478.6575,0,0,1
-402.5471,0.0741272,500.9265,0,0,1
-377.744,0.07412815,523.1957,0,0,1
-314.3104,1.492809,516.5955,0,0,1
-304.2806,1.038067,545.9717,0,0,1
-296.5026,0.380908,582.3939,0,0,1
-278.5313,0.0741272,612.2722,0,0,1
-253.7281,0.0741272,634.5413,0,0,1
-228.9249,0.07412815,656.8104,0,0,1
-134.2283,5.734499,488.2637,0,0,1
-582.5028,0.4241037,539.825,0,0,1
-425.1767,2.9388,512.1008,0,0,0
-526.2943,0.07412815,613.8079,0,0,1
-316.8762,4.29043,518.513,0,0,1
-307.5999,3.960676,548.9996,0,0,1
-414.6799,0.07412815,714.0189,0,0,1
-358.1379,0.725585,721.0093,0,0,1
-303.1877,1.502437,718.1442,0,0,1
-277.8472,1.207935,760.6849,0,0,1
-161.078,5.731413,561.566,1,0,0
-641.3478,4.683365,563.0241,0,0,1
-424.5854,6.51259,511.8088,0,0,0
-592.2963,4.333616,654.0675,0,0,1
-557.8418,4.232495,698.5916,0,0,1
-509.7888,4.294256,733.435,0,0,1
-428.2762,4.870613,729.1624,0,0,1
-364.1483,5.298614,729.2189,0,0,1
-318.829,5.487054,744.5833,0,0,1
-191.1613,7.589729,576.6287,1,0,0
-161.078,7.90277,561.566,1,0,0
-645.9025,10.07413,564.8198,0,0,1
-423.3904,10.07413,511.2188,0,0,0
-597.8898,10.07413,657.4794,0,0,1
-514.5151,10.07413,737.7463,0,0,1
-431.9927,10.07413,733.3016,0,0,1
-382.2347,10.07413,753.9238,0,0,1
-320.6821,10.07413,747.7156,0,0,1
-186.9128,10.0741,567.6081,1,0,0
-161.078,10.07413,561.566,1,0,0
-649.6579,15.54478,566.3003,0,0,1
-425.6794,13.647,512.3491,0,0,0
-605.514,15.96294,662.1301,0,0,1
-519.0068,15.97815,741.8436,0,0,1
-436.4506,15.4,738.2669,0,0,1
-322.3566,14.72914,750.546,0,0,1
-184.318,12.40471,562.0986,1,0,0
-160.7727,12.23724,560.7324,1,0,0
-653.6321,21.09186,567.8671,0,0,1
-441.8919,17.55563,520.3547,0,0,0
-324.1034,19.45142,753.4985,0,0,1
-186.1738,14.81873,566.0392,1,0,0
-159.9826,14.35769,558.5753,1,0,0
-660.7499,26.80602,570.6732,0,0,1
-444.9442,21.3912,521.8619,0,0,0
-326.5198,24.27968,757.5831,0,0,1
-185.8772,17.17102,565.4092,1,0,0
-160.183,16.51572,559.1226,1,0,0
-185.0337,19.46081,563.6183,1,0,0
-160.4013,18.68649,559.7185,1,0,0
-257.7157,0.0741272,484.9191,0,0,1
-239.7089,0.0741272,493.623,0,0,1
-221.7022,0.0741272,502.3268,0,0,1
-203.6955,0.0741272,511.0307,0,0,1
-185.6887,0.0741272,519.7346,0,0,1
-143.3411,2.870691,478.0815,0,0,1
-130.405,2.865616,484.4471,0,0,1
-123.3395,1.706471,513.6116,0,0,1
-113.6618,0.0741272,554.5502,0,0,1
-95.65509,0.0741272,563.254,0,0,1
-301.9838,0.0741272,519.0561,0,0,1
-279.4754,0.0741272,529.936,0,0,1
-256.967,0.07412624,540.8158,0,0,1
-234.4585,0.0741272,551.6956,0,0,1
-211.9501,0.07412815,562.5754,0,0,1
-188.6983,0.1424561,571.9174,0,0,1
-131.2012,4.215052,486.6242,0,0,1
-132.6172,1.925393,549.5176,1,0,0
-116.455,1.397379,571.9915,1,0,0
-99.40802,0.07412624,616.9747,0,0,1
-309.0688,2.334056,524.5196,0,0,1
-309.7653,1.431585,557.5953,0,0,1
-296.533,0.8911686,583.9993,0,0,1
-285.7303,0.0741272,619.4705,0,0,1
-255.7191,0.07412624,633.9769,0,0,1
-225.7079,0.0741272,648.4834,0,0,1
-132.129,5.59918,489.1613,0,0,1
-135.0093,3.681296,558.7753,1,0,0
-116.2427,3.605151,570.6656,1,0,0
-105.663,0.0741272,706.5092,0,0,1
-310.1882,4.888792,525.3828,0,0,1
-478.3076,0.0741272,711.5007,0,0,1
-423.6951,0.3462305,722.7874,0,0,1
-362.5087,0.9116631,720.9618,0,0,1
-305.7477,1.502437,715.5898,0,0,1
-279.3497,0.9422693,759.4585,0,0,1
-158.6069,5.556597,561.566,1,0,0
-134.6812,5.837961,557.5055,1,0,0
-115.9509,5.796819,568.8439,1,0,0
-111.6259,1.818617,791.8631,0,0,1
-544.4839,4.835135,706.0579,0,0,1
-504.0738,4.750158,735.0293,0,0,1
-429.4184,5.129032,729.0339,0,0,1
-370.556,5.362101,731.5992,0,0,1
-322.4369,5.470531,742.8152,0,0,1
-190.5107,7.549595,575.6666,1,0,0
-158.6069,7.815363,561.566,1,0,0
-134.3579,7.968717,556.2542,1,0,0
-115.7067,7.95027,567.3186,1,0,0
-111.9736,5.900043,796.8407,0,0,1
-551.6843,10.07413,711.6104,0,0,1
-509.6255,10.07413,740.0988,0,0,1
-433.0959,10.07413,733.0477,0,0,1
-385.6564,10.07413,751.5601,0,0,1
-324.4075,10.07413,746.0301,0,0,1
-186.55,10.07412,567.4728,1,0,0
-158.6069,10.07413,561.566,1,0,0
-134.0715,10.07413,555.1459,1,0,0
-115.4753,10.07413,565.8742,1,0,0
-98.38319,10.07413,602.3041,1,0,0
-515.1477,15.53733,745.1415,0,0,1
-437.6374,15.13575,738.0043,0,0,1
-326.1897,14.74918,748.9374,0,0,1
-183.7872,12.4442,561.757,1,0,0
-158.6069,12.33289,561.566,1,0,0
-134.1402,12.171,555.4116,1,0,0
-114.9465,12.15194,562.5721,1,0,0
-98.11194,12.40145,598.4214,1,0,0
-328.0737,19.49596,752.0107,0,0,1
-186,14.91596,566.335,1,0,0
-158.6069,14.59166,561.566,1,0,0
-133.8195,14.24274,554.1704,1,0,0
-115.8773,14.34251,568.3839,1,0,0
-97.88299,14.66776,595.1442,1,0,0
-331.0106,24.37463,756.8018,0,0,1
-185.6701,17.31414,565.6525,1,0,0
-158.6069,16.85042,561.566,1,0,0
-133.6938,16.31227,553.6841,1,0,0
-115.7613,16.45564,567.6599,1,0,0
-97.73846,16.90681,593.0754,1,0,0
-184.7454,19.64248,563.7394,1,0,0
-158.6069,19.10919,561.566,1,0,0
-133.577,18.37334,553.2321,1,0,0
-115.5941,18.54229,566.6156,1,0,0
-97.61526,19.11871,591.3119,1,0,0
-217.6776,0.0741272,531.4673,0,0,1
-198.0605,0.0741272,535.3622,0,0,1
-178.4434,0.0741272,539.2571,0,0,1
-132.9943,3.37816,480.9103,0,0,1
-138.3371,0.2230518,544.1835,1,0,0
-119.5922,0.0741272,550.9418,0,0,1
-99.9751,0.0741272,554.8367,0,0,1
-80.35803,0.0741272,558.7317,0,0,1
-60.74097,0.0741272,562.6265,0,0,1
-41.12384,0.0741272,566.5215,0,0,1
-251.9362,0.0741272,575.6414,0,0,1
-227.4149,0.0741272,580.51,0,0,1
-202.8935,0.0741272,585.3787,0,0,1
-134.5826,4.554842,484.7371,0,0,1
-138.3306,2.194158,544.162,1,0,0
-122.8999,1.394743,567.6012,1,0,0
-104.2882,0.2892982,599.4721,1,0,0
-80.28674,0.0741272,609.7218,0,0,1
-55.76538,0.0741272,614.5904,0,0,1
-31.24402,0.0741272,619.459,0,0,1
-293.36,0.7604017,629.0544,0,0,1
-276.3387,0.07412815,655.7563,0,0,1
-243.6436,0.07412815,662.2479,0,0,1
-136.0154,5.824699,488.1896,0,0,1
-143.6317,3.621056,561.566,1,0,0
-122.6827,3.598053,566.5071,1,0,0
-104.1543,2.777041,598.0871,1,0,0
-80.16797,0.07412624,694.7054,0,0,1
-47.47284,0.0741272,701.1969,0,0,1
-14.77771,0.0741272,707.6884,0,0,1
-366.4577,1.731273,723.3088,0,0,1
-328.1321,1.643041,735.4161,0,0,1
-293.3074,1.37623,755.9313,0,0,1
-164.7076,5.773235,557.3226,1,0,0
-143.6317,5.772078,561.566,1,0,0
-122.3285,5.793121,564.7231,1,0,0
-103.5026,5.344258,591.3422,1,0,0
-79.99365,0.9621897,819.3901,0,0,1
-30.88763,0.07412815,874.4098,0,0,1
18.15503,0.0741272,884.147,0,0,1
-380.6024,5.696261,741.5474,0,0,1
-330.8125,5.812928,739.5386,0,0,1
-295.1426,5.687649,759.3931,0,0,1
-164.058,7.940294,555.7576,1,0,0
-143.6317,7.923104,561.566,1,0,0
-122.0322,7.948838,563.2309,1,0,0
-102.9762,7.763652,585.8945,1,0,0
-387.7531,10.07413,750.7677,0,0,1
-332.6992,10.07413,742.4404,0,0,1
-296.6047,10.07413,762.1512,0,0,1
-163.4798,10.07411,554.3644,1,0,0
-143.6317,10.07413,561.566,1,0,0
-121.8111,10.07413,562.1174,1,0,0
-102.7376,10.07413,583.4257,1,0,0
-334.4638,14.39752,745.1544,0,0,1
-297.8775,14.51653,764.5522,0,0,1
-163.0565,12.18234,553.3444,1,0,0
-142.7928,12.1965,558.8117,1,0,0
-121.1133,12.15223,558.6028,1,0,0
-102.5792,12.34353,581.7859,1,0,0
-336.3765,18.78607,748.096,0,0,1
-299.0777,19.00803,766.8163,0,0,1
-162.6379,14.26913,552.3359,1,0,0
-143.1798,14.34531,560.0823,1,0,0
-121.8692,14.30795,562.4102,1,0,0
-102.4413,14.5844,580.3586,1,0,0
-339.3567,23.29433,752.6798,0,0,1
-300.3154,23.55091,769.151,0,0,1
-162.3781,16.34671,551.7097,1,0,0
-143.6317,16.5272,561.566,1,0,0
-121.8692,16.42489,562.4102,1,0,0
-102.3558,16.81301,579.4742,1,0,0
-301.7667,28.16189,771.8887,0,0,1
-162.1605,18.41529,551.1855,1,0,0
-143.6317,18.67823,561.566,1,0,0
-121.8692,18.54182,562.4102,1,0,0
-102.2734,19.0252,578.6213,1,0,0
-134.0715,4.165742,480.4011,0,0,1
-128.5764,3.270298,498.0699,0,0,1
-131.1158,0.0741272,562.1852,0,0,1
-111.1382,0.0741272,561.2391,0,0,1
-91.16058,0.0741272,560.2932,0,0,1
-71.18298,0.0741272,559.3472,0,0,1
-51.20538,0.0741272,558.4011,0,0,1
-31.22778,0.0741272,557.4551,0,0,1
-11.25012,0.0741272,556.5091,0,0,1
8.727472,0.07412732,555.563,0,0,1
-137.0126,5.087215,487.0528,0,0,1
-149.5447,2.25,558.6561,1,0,0
-131.1373,2.070732,562.2711,1,0,0
-113.4633,1.464177,576.6151,1,0,0
-93.78992,0.0741272,610.4737,0,0,1
-68.81793,0.0741272,609.2912,0,0,1
-43.84589,0.0741272,608.1086,0,0,1
-18.87384,0.0741272,606.9261,0,0,1
6.098107,0.07412708,605.7436,0,0,1
31.07014,0.0741272,604.5611,0,0,1
-169.7531,4.161577,561.0965,1,0,0
-150.5518,4.120259,561.566,1,0,0
-130.7708,4.115146,560.8,1,0,0
-113.2177,3.664989,574.9908,1,0,0
-98.17224,0.0741272,694.1079,0,0,1
-64.87616,0.0741272,692.5313,0,0,1
-31.58014,0.0741272,690.9546,0,0,1
1.71584,0.0741272,689.3779,0,0,1
35.01189,0.07412696,687.8011,0,0,1
68.30791,0.0741272,686.2245,0,0,1
-168.7399,6.177248,558.8051,1,0,0
-150.5518,6.104882,561.566,1,0,0
-130.3743,6.132894,559.2085,1,0,0
-112.8376,5.85122,572.4775,1,0,0
-103.5266,1.371082,796.2944,0,0,1
-56.99268,0.0741272,859.0113,0,0,1
-7.048645,0.0741272,856.6463,0,0,1
42.89536,0.0741272,854.2813,0,0,1
92.8394,0.0741272,851.9162,0,0,1
142.7835,0.0741272,849.5512,0,0,1
-168.2989,8.135441,557.8079,1,0,0
-150.5518,8.089506,561.566,1,0,0
-130.1507,8.112372,558.3108,1,0,0
-112.5336,7.982616,570.4666,1,0,0
-103.8573,5.659711,802.6066,0,0,1
-167.8843,10.07413,556.8702,1,0,0
-150.5518,10.07413,561.566,1,0,0
-129.9464,10.07413,557.4905,1,0,0
-112.2601,10.07413,568.6584,1,0,0
-104.1146,10.07413,807.5172,0,0,1
-167.454,11.99413,555.897,1,0,0
-150.5518,12.05875,561.566,1,0,0
-129.2896,12.00176,554.8541,1,0,0
-111.8518,12.12093,565.9584,1,0,0
-104.3906,14.58996,812.7849,0,0,1
-166.7884,13.88469,554.3917,1,0,0
-150.5518,14.04337,561.566,1,0,0
-129.1026,13.91458,554.1034,1,0,0
-111.7184,14.15023,565.0762,1,0,0
-166.5556,15.77451,553.8652,1,0,0
-150.5518,16.028,561.566,1,0,0
-129.2416,15.85133,554.6614,1,0,0
-111.6049,16.16594,564.3251,1,0,0
-166.3412,17.65569,553.3804,1,0,0
-150.5518,18.01262,561.566,1,0,0
-129.1298,17.75933,554.2123,1,0,0
-111.535,18.17822,563.8631,1,0,0
-125.3832,0.8411534,565.9944,1,0,0
-109.6043,0.0741272,577.7581,0,0,1
-90.24164,0.0741272,572.749,0,0,1
-70.87909,0.0741272,567.74,0,0,1
-51.51654,0.0741272,562.7309,0,0,1
-32.15387,0.0741272,557.7219,0,0,1
-12.79132,0.0741272,552.7128,0,0,1
6.571192,0.07412732,547.7039,0,0,1
25.93378,0.0741272,542.6949,0,0,1
45.29636,0.0741272,537.6858,0,0,1
-125.3056,2.701024,565.6315,1,0,0
-110.1197,1.923441,581.7825,1,0,0
-92.24103,0.07412815,624.9122,0,0,1
-68.03778,0.0741272,618.6509,0,0,1
-43.83453,0.0741272,612.3896,0,0,1
-19.63135,0.0741272,606.1284,0,0,1
4.571833,0.0741272,599.8671,0,0,1
28.77505,0.07412744,593.6058,0,0,1
52.97831,0.0741272,587.3445,0,0,1
77.18152,0.07412672,581.0833,0,0,1
-124.9816,4.585916,564.1148,1,0,0
-109.8519,4.019837,579.6913,1,0,0
-95.57336,0.07412815,711.851,0,0,1
-63.30231,0.0741272,703.5026,0,0,1
