-334.0479,3.233111,512.8658,0,0,1
-305.275,2.896235,535.5247,0,0,1
-287.8965,0.9956484,635.6078,0,0,1
-247.4535,0.0741272,690.2646,0,0,1
-198.3456,0.0741272,699.6673,0,0,1
-164.6247,2.9612,559.1477,1,0,0
-130.4362,3.033627,562.0071,1,0,0
-449.2529,6.441276,512.4265,0,0,0
-420.6193,6.319983,530.2596,0,0,0
-305.8746,7.933249,387.9727,0,0,1
-336.5398,6.588807,518.9876,1,0.92,0.016
-362.4478,4.488026,727.9213,0,0,1
-309.5557,4.383144,748.7273,0,0,1
-256.1979,4.100798,787.6913,0,0,1
-199.1484,6.032509,601.9345,1,0,0
-164.863,6.540023,556.8258,1,0,0
-131.0889,6.58574,558.6377,1,0,0
-447.4801,10.07414,510.1082,0,0,0
-420.1886,10.07413,529.5872,0,0,0
-490.7319,10.07413,742.4976,0,0,1
-336.5399,10.07413,518.9875,1,0.92,0.016
-364.6575,10.07413,735.3574,0,0,1
-310.4185,10.07413,753.2335,0,0,1
-256.5764,10.07413,791.9095,0,0,1
-199.2436,10.07413,590.3419,1,0,0
-165.0657,10.07413,554.8506,1,0,0
-131.3911,10.07413,557.0774,1,0,0
-447.8808,13.68677,510.6321,0,0,0
-542.8611,15.93256,721.1052,0,0,1
-337.2775,13.57863,520.7996,1,0.92,0.016
-311.1685,15.85087,757.1506,0,0,1
-256.898,16.12539,795.4926,0,0,1
-199.3008,13.93387,583.3873,1,0,0
-165.1248,13.58367,554.2751,1,0,0
-131.8063,13.52748,554.9338,1,0,0
-450.0918,17.36453,513.5236,0,0,0
-338.4333,17.14326,523.6391,1,0.92,0.016
-311.9365,21.70929,761.1612,0,0,1
-257.232,22.25101,799.2138,0,0,1
-199.315,17.75944,581.6449,1,0,0
-165.2243,17.07455,553.3059,1,0,0
-132.0163,16.96034,553.8496,1,0,0
-451.5964,21.07619,515.4912,0,0,0
-337.5676,20.61028,521.5123,1,0.92,0.016
-312.9387,27.68675,766.3953,0,0,1
-257.6824,28.48984,804.2312,0,0,1
-199.3221,21.57672,580.7823,1,0,0
-165.2774,20.55981,552.7883,1,0,0
-132.1241,20.38765,553.293,1,0,0
-337.0631,24.06984,520.2729,1,0.92,0.016
-199.3221,25.41133,580.793,1,0,0
-165.2985,24.04711,552.5823,1,0,0
-132.1696,23.8166,553.0582,1,0,0
-287.8695,1.002209,373.8143,0,0,1
-275.4237,0.2340307,388.8178,0,0,1
-256.6169,0.0741272,391.463,0,0,1
-236.6255,0.0741272,390.874,0,0,1
-216.6342,0.0741272,390.2849,0,0,1
-196.6429,0.0741272,389.6958,0,0,1
-176.6516,0.0741272,389.1067,0,0,1
-156.6603,0.0741272,388.5176,0,0,1
-136.6689,0.0741272,387.9286,0,0,1
-116.6776,0.0741272,387.3395,0,0,1
-290.3793,2.60314,379.2269,0,0,1
-287.0848,0.9426603,420.6598,0,0,1
-269.3407,0.1920137,438.9112,0,0,1
-245.1485,0.07412624,441.1468,0,0,1
-220.1594,0.0741272,440.4105,0,0,1
-195.1702,0.07412815,439.6741,0,0,1
-170.181,0.07412815,438.9378,0,0,1
-145.1919,0.0741272,438.2014,0,0,1
-120.2027,0.0741272,437.465,0,0,1
-95.21356,0.0741272,436.7287,0,0,1
-292.3288,4.346537,383.4311,0,0,1
-289.9804,2.990984,428.5666,0,0,1
-292.6722,0.0741272,525.9167,0,0,1
-259.3534,0.0741272,524.9349,0,0,1
-226.0345,0.0741272,523.9531,0,0,1
-192.7157,0.0741272,522.9713,0,0,1
-159.3968,0.0741272,521.9894,0,0,1
-137.1301,1.519688,473.1271,0,0,1
-92.75909,0.07412815,520.0259,0,0,1
-59.44019,0.0741272,519.0441,0,0,1
-294.0018,6.184591,387.0391,0,0,1
-292.9091,5.193882,436.5638,0,0,1
-317.4393,1.575684,618.275,0,0,1
-285.3397,0.3584852,678.2155,0,0,1
-237.7849,0.0741272,691.0383,0,0,1
-190.9347,2.198122,583.412,1,0,0
-154.2578,2.613246,561.566,1,0,0
-136.0612,4.277962,477.7579,0,0,1
-37.87164,0.07412624,685.1475,0,0,1
12.10658,0.0741272,683.6748,0,0,1
-296.4767,8.076738,392.3764,0,0,1
-403.112,4.658541,737.4867,0,0,1
-347.7706,4.703251,731.383,0,0,1
-298.5842,4.439317,756.3386,0,0,1
-244.8123,4.077378,790.9636,0,0,1
-191.092,6.189518,578.075,1,0,0
-154.2578,6.343688,561.566,1,0,0
-114.9876,6.257273,569.054,1,0,0
-353.2896,10.07413,514.8969,1,0.92,0.016
-405.3342,10.07413,743.5547,0,0,1
-349.0296,10.07413,736.0779,0,0,1
-299.2581,10.07413,760.3139,0,0,1
-245.1206,10.07413,795.3478,0,0,1
-191.2108,10.07413,574.0408,1,0,0
-154.2578,10.07413,561.566,1,0,0
-115.7647,10.07413,565.6871,1,0,0
-350.213,15.53533,740.4911,0,0,1
-299.8634,15.78399,763.8842,0,0,1
-245.3755,16.15078,798.9741,0,0,1
-191.3008,13.88782,570.9863,1,0,0
-154.2578,13.80457,561.566,1,0,0
-115.1617,13.88339,568.2995,1,0,0
-351.8705,21.11911,746.6719,0,0,1
-300.4855,21.56684,767.554,0,0,1
-245.6392,22.30222,802.7226,0,0,1
-191.3523,17.66657,569.2401,1,0,0
-154.2578,17.53501,561.566,1,0,0
-115.4065,17.6713,567.2388,1,0,0
-301.1837,27.43607,771.672,0,0,1
-246.0135,28.57556,808.0458,0,0,1
-191.3797,21.43488,568.3099,1,0,0
-154.2578,21.26545,561.566,1,0,0
-117.0906,21.24962,559.943,1,0,0
-353.8955,22.94697,516.2035,1,0.92,0.016
-191.3836,25.21657,568.1794,1,0,0
-154.2578,24.9959,561.566,1,0,0
-116.7797,25.02901,561.2901,1,0,0
-249.3317,0.0741272,408.4374,0,0,1
-229.9673,0.0741272,403.4351,0,0,1
-210.603,0.0741272,398.4327,0,0,1
-191.2387,0.0741272,393.4304,0,0,1
-171.8744,0.0741272,388.428,0,0,1
-152.5101,0.0741272,383.4256,0,0,1
-133.1458,0.0741272,378.4233,0,0,1
-113.7815,0.0741272,373.4209,0,0,1
-94.41718,0.0741272,368.4185,0,0,1
-75.05286,0.0741272,363.4162,0,0,1
-261.0311,0.0741272,463.1012,0,0,1
-236.8257,0.07412624,456.8482,0,0,1
-212.6203,0.0741272,450.5953,0,0,1
-188.4149,0.0741272,444.3423,0,0,1
-164.2095,0.0741272,438.0894,0,0,1
-140.0042,0.07412815,431.8364,0,0,1
-115.7988,0.07412815,425.5834,0,0,1
-91.59344,0.0741272,419.3305,0,0,1
-67.388,0.0741272,413.0775,0,0,1
-43.18268,0.0741272,406.8245,0,0,1
-280.5302,0.07412624,554.2074,0,0,1
-248.2563,0.0741272,545.8701,0,0,1
-215.9825,0.07412815,537.5328,0,0,1
-183.7087,0.07412815,529.1956,0,0,1
-151.6277,0.1118774,519.6085,0,0,1
-126.5991,0.9662828,483.7277,0,0,1
-86.88708,0.0741272,504.1838,0,0,1
-71.42981,1.210992,461.0511,0,0,1
-22.33948,0.0741272,487.5092,0,0,1
9.93437,0.07412714,479.1719,0,0,1
-301.7468,1.593995,653.3381,0,0,1
-271.1177,0.07412624,723.9139,0,0,1
-222.7069,0.0741272,711.408,0,0,1
-181.4408,2.604312,570.0854,1,0,0
-145.1519,2.587753,561.566,1,0,0
-77.47455,0.0741272,673.8903,0,0,1
-29.06378,0.0741272,661.3843,0,0,1
19.3469,0.07412708,648.8784,0,0,1
67.7577,0.0741272,636.3725,0,0,1
116.1684,0.0741272,623.8666,0,0,1
-320.9457,5.013556,743.0417,0,0,1
-277.2947,4.623799,772.0207,0,0,1
-225.9886,4.26075,796.2636,0,0,1
-181.6242,6.371702,566.778,1,0,0
-145.1519,6.330941,561.566,1,0,0
250.7095,1.689784,938.6553,0,0,1
-321.8279,10.07413,747.1636,0,0,1
-277.929,10.07413,776.9608,0,0,1
-226.1878,10.07413,801.4161,0,0,1
-181.7691,10.07413,564.1669,1,0,0
-145.5872,10.07413,558.7463,1,0,0
-322.6066,15.20568,750.802,0,0,1
-278.4578,15.60925,781.0789,0,0,1
-226.3585,15.97919,805.8288,0,0,1
-181.6663,13.76912,566.0205,1,0,0
-145.1519,13.81732,561.566,1,0,0
-101.0057,14.13333,582.8008,1,0,0
-323.4124,20.40611,754.5668,0,0,1
-278.9872,21.22157,785.2023,0,0,1
-226.5472,21.97779,810.7078,0,0,1
-181.671,17.46243,565.9354,1,0,0
-145.1519,17.5605,561.566,1,0,0
-101.7968,18.12928,579.7384,1,0,0
-324.6039,25.72486,760.134,0,0,1
-279.6619,26.94283,790.4562,0,0,1
-181.782,21.09761,563.934,1,0,0
-145.1519,21.30369,561.566,1,0,0
-102.1415,22.1155,578.4038,1,0,0
-181.9753,24.63522,560.4492,1,0,0
-145.1519,25.04688,561.566,1,0,0
-102.04,26.14553,578.7972,1,0,0
-206.1489,0.0741272,413.3602,0,0,1
-188.118,0.0741272,404.7062,0,0,1
-170.0872,0.0741272,396.0524,0,0,1
-152.0564,0.0741272,387.3985,0,0,1
-134.0256,0.0741272,378.7446,0,0,1
-115.9948,0.0741272,370.0906,0,0,1
-97.96399,0.0741272,361.4368,0,0,1
-79.93317,0.0741272,352.7828,0,0,1
-61.90234,0.0741272,344.129,0,0,1
-43.87152,0.0741272,335.4751,0,0,1
-207.0526,0.07412624,469.2546,0,0,1
-184.5141,0.0741272,458.4371,0,0,1
-161.9755,0.07412815,447.6198,0,0,1
-139.4371,0.0741272,436.8024,0,0,1
-116.8986,0.0741272,425.9851,0,0,1
-94.36005,0.07412815,415.1676,0,0,1
-71.82147,0.07412815,404.3503,0,0,1
-49.28302,0.0741272,393.5329,0,0,1
-26.74445,0.0741272,382.7155,0,0,1
-4.205994,0.0741272,371.8982,0,0,1
-208.5588,0.0741272,562.4119,0,0,1
-178.5075,0.0741272,547.9887,0,0,1
-148.4562,0.0741272,533.5656,0,0,1
-127.6351,1.171279,483.0066,0,0,1
-88.35345,0.07412624,504.7192,0,0,1
-73.37952,1.119484,458.8817,0,0,1
-28.25073,0.0741272,475.8729,0,0,1
1.800519,0.0741272,461.4497,0,0,1
31.8519,0.07412732,447.0266,0,0,1
61.90323,0.0741272,432.6034,0,0,1
-211.5714,0.0741272,748.7265,0,0,1
-177.2356,3.054529,566.9521,1,0,0
-144.0517,2.864473,561.566,1,0,0
-76.34039,0.07412815,683.8223,0,0,1
-31.26331,0.0741272,662.1876,0,0,1
13.81365,0.0741272,640.5527,0,0,1
58.89071,0.0741272,618.9181,0,0,1
103.9677,0.0741272,597.2833,0,0,1
149.0448,0.0741272,575.6486,0,0,1
126.2585,1.785014,491.698,0,0,1
-212.4471,4.589624,802.8885,0,0,1
-177.4398,6.592661,563.9074,1,0,0
-144.0517,6.469298,561.566,1,0,0
253.3587,1.354735,938.1426,0,0,1
500.6234,0.0741272,961.5146,0,0,1
132.5737,5.849965,497.4969,0,0,1
-212.5645,10.07413,810.1461,0,0,1
-177.5832,10.07413,561.7706,1,0,0
-144.0517,10.07413,561.566,1,0,0
-212.6748,15.68456,816.9666,0,0,1
-177.5623,13.53861,562.0819,1,0,0
-144.427,13.65582,559.18,1,0,0
-102.8757,14.02275,579.9384,1,0,0
-177.5623,17.00309,562.0819,1,0,0
-144.0517,17.28378,561.566,1,0,0
-103.6348,17.91122,576.9663,1,0,0
-177.5623,20.46757,562.0819,1,0,0
-144.0517,20.88861,561.566,1,0,0
-104.0094,21.78525,575.4999,1,0,0
-177.9398,23.72256,556.454,1,0,0
-144.0517,24.49344,561.566,1,0,0
-103.9736,25.69463,575.6399,1,0,0
-160.7548,0.0741272,409.4517,0,0,1
-144.8524,0.0741272,397.3226,0,0,1
-128.9501,0.0741272,385.1935,0,0,1
-113.0477,0.0741272,373.0644,0,0,1
-97.14532,0.0741272,360.9353,0,0,1
-81.24292,0.0741272,348.8062,0,0,1
-65.34058,0.0741272,336.6771,0,0,1
-49.43817,0.0741272,324.5481,0,0,1
-33.53583,0.0741272,312.419,0,0,1
-17.63348,0.0741272,300.2899,0,0,1
-150.31,0.0741272,464.3689,0,0,1
-130.4321,0.0741272,449.2076,0,0,1
-110.5541,0.0741272,434.0463,0,0,1
-90.67615,0.0741272,418.8849,0,0,1
-70.79822,0.07412815,403.7235,0,0,1
-50.92023,0.0741272,388.5621,0,0,1
-31.0423,0.0741272,373.4008,0,0,1
-11.16431,0.0741272,358.2394,0,0,1
8.713607,0.07412708,343.078,0,0,1
28.59159,0.0741272,327.9167,0,0,1
-146.3998,2.01257,484.9284,0,0,1
-106.3981,0.07412815,535.6826,0,0,1
-79.89417,0.07412815,515.4674,0,0,1
-69.89844,1.18099,461.441,0,0,1
-26.88629,0.0741272,475.0372,0,0,1
-0.3823853,0.0741272,454.822,0,0,1
26.12154,0.07412708,434.6068,0,0,1
52.62548,0.0741272,414.3917,0,0,1
79.12944,0.0741272,394.1766,0,0,1
105.6334,0.07412696,373.9614,0,0,1
-131.9524,3.316537,560.8911,1,0,0
-58.33026,0.0741272,708.6326,0,0,1
-18.57434,0.07412624,678.3099,0,0,1
21.18153,0.0741272,647.9872,0,0,1
60.93745,0.07412744,617.6644,0,0,1
100.6933,0.07412744,587.3417,0,0,1
140.4493,0.0741272,557.019,0,0,1
128.9793,1.412529,481.6037,0,0,1
219.9611,0.07412767,496.3736,0,0,1
259.717,0.0741272,466.0509,0,0,1
-132.4556,6.719423,558.2455,1,0,0
239.771,1.680332,908.0931,0,0,1
403.9207,0.0741272,984.9009,0,0,1
276.4326,3.091766,702.618,0,0,1
132.2781,5.700233,484.5075,0,0,1
43.16707,7.166389,368.0798,1,0,1
332.8553,4.283017,509.7625,0,0,1
-132.7517,10.07413,556.6884,1,0,0
643.048,10.07413,934.123,0,0,1
50.05774,10.07412,373.0802,1,0,1
340.7615,10.07413,514.4877,0,0,1
-133.1177,13.39714,554.7643,1,0,0
49.74355,13.05969,372.8521,1,0,1
666.3112,19.47211,709.0554,0,0,1
-133.3278,16.70004,553.6595,1,0,0
41.77869,15.85676,367.0723,1,0,1
-133.4412,19.99671,553.0635,1,0,0
41.90716,18.75262,367.1656,1,0,1
-133.482,23.29642,552.8488,1,0,0
42.0429,21.65186,367.2641,1,0,1
119.2068,23.99474,382.0737,1,0,1
-119.4289,0.0741272,397.3725,0,0,1
-106.1459,0.0741272,382.4205,0,0,1
-92.86292,0.0741272,367.4685,0,0,1
-79.5799,0.0741272,352.5165,0,0,1
-66.29688,0.0741272,337.5645,0,0,1
-53.01392,0.0741272,322.6125,0,0,1
-39.7309,0.0741272,307.6605,0,0,1
-26.44794,0.0741272,292.7086,0,0,1
-13.16492,0.0741272,277.7565,0,0,1
0.1180554,0.07412726,262.8045,0,0,1
-98.65265,0.07412624,449.27,0,0,1
-82.04889,0.0741272,430.58,0,0,1
-65.44513,0.0741272,411.89,0,0,1
-48.84143,0.0741272,393.2,0,0,1
-32.23761,0.07412815,374.51,0,0,1
-15.63391,0.0741272,355.82,0,0,1
0.9697918,0.0741272,337.1301,0,0,1
17.57355,0.07412708,318.4401,0,0,1
34.17728,0.0741272,299.75,0,0,1
50.78103,0.0741272,281.06,0,0,1
-64.02557,0.0741272,535.7657,0,0,1
-41.88727,0.07412815,510.8458,0,0,1
-19.7489,0.0741272,485.9258,0,0,1
2.389343,0.07412714,461.0058,0,0,1
24.52772,0.07412708,436.0858,0,0,1
46.66602,0.0741272,411.1658,0,0,1
68.80434,0.07412696,386.2458,0,0,1
90.94267,0.0741272,361.3258,0,0,1
113.081,0.07412767,336.4059,0,0,1
103.2568,1.020454,299.9687,1,0,1
5.228498,0.0741272,708.7574,0,0,1
38.43599,0.0741272,671.3774,0,0,1
71.6435,0.0741272,633.9974,0,0,1
104.851,0.07412696,596.6174,0,0,1
138.0585,0.0741272,559.2375,0,0,1
127.6072,1.2421,483.072,0,0,1
204.4734,0.0741272,484.4774,0,0,1
237.6809,0.0741272,447.0975,0,0,1
270.8884,0.0741272,409.7175,0,0,1
102.8663,4.046051,299.828,1,0,1
239.6579,2.010154,906.2098,0,0,1
278.5667,3.011424,711.6526,0,0,1
130.8776,5.614368,485.9774,0,0,1
43.39344,7.052962,367.847,1,0,1
596.884,0.9942665,657.0593,0,0,1
275.0168,5.030579,411.6354,1,0,1
102.4769,7.063934,299.6877,1,0,1
646.6409,10.07413,944.1693,0,0,1
50.04209,10.07407,372.661,1,0,1
656.043,10.07413,691.639,0,0,1
275.8886,10.07414,412.0404,1,0,1
102.0884,10.07413,299.5477,1,0,1
49.68427,13.17257,372.4019,1,0,1
664.4905,19.92187,696.5767,0,0,1
276.7635,15.13629,412.4469,1,0,1
101.9674,13.0793,299.5041,1,0,1
42.02283,16.0828,366.8546,1,0,1
675.0179,30.00875,702.7303,0,0,1
252.2642,19.68073,401.0653,1,0,1
102.1458,16.08797,299.5684,1,0,1
42.15647,19.09203,366.9514,1,0,1
155.1456,21.40691,355.9475,1,0,1
102.3244,19.10022,299.6327,1,0,1
42.29425,22.10478,367.0511,1,0,1
122.3412,24.83401,379.6788,1,0,1
141.962,24.62756,349.8229,1,0,1
102.5032,22.11598,299.6972,1,0,1
-75.73804,0.0741272,373.9641,0,0,1
-66.07538,0.0741272,356.4532,0,0,1
-56.41266,0.0741272,338.9423,0,0,1
-46.75,0.0741272,321.4313,0,0,1
-37.08734,0.0741272,303.9204,0,0,1
-27.42462,0.0741272,286.4095,0,0,1
-17.7619,0.0741272,268.8986,0,0,1
-8.099182,0.0741272,251.3876,0,0,1
1.563413,0.07412714,233.8767,0,0,1
11.22612,0.0741272,216.3658,0,0,1
-44.03912,0.0741272,420.0095,0,0,1
-31.96075,0.0741272,398.1209,0,0,1
-19.88239,0.0741272,376.2322,0,0,1
-7.804016,0.0741272,354.3435,0,0,1
4.274261,0.07412714,332.4549,0,0,1
16.35261,0.0741272,310.5663,0,0,1
28.431,0.07412708,288.6776,0,0,1
40.50937,0.0741272,266.7889,0,0,1
52.58773,0.07412744,244.9003,0,0,1
64.66611,0.0741272,223.0116,0,0,1
8.792344,0.07412726,496.7518,0,0,1
24.89684,0.0741272,467.5669,0,0,1
41.00131,0.07412744,438.3821,0,0,1
57.1058,0.07412744,409.1971,0,0,1
73.21033,0.0741272,380.0123,0,0,1
89.31479,0.0741272,350.8275,0,0,1
105.4193,0.07412672,321.6426,0,0,1
121.5238,0.0741272,292.4577,0,0,1
137.6283,0.0741272,263.2729,0,0,1
153.7328,0.0741272,234.088,0,0,1
114.4554,0.0741272,650.2364,0,0,1
138.6122,0.0741272,606.4591,0,0,1
118.4826,1.286446,517.4746,0,0,1
133.7461,1.439599,473.9638,0,0,1
103.2453,2.681293,400.7328,1,0,1
235.2391,0.0741272,431.3499,0,0,1
259.3959,0.07412672,387.5726,0,0,1
152.3809,2.772652,302.2345,1,0,1
307.7094,0.0741272,300.018,0,0,1
291.7227,0.8253136,251.2484,0,0,1
270.4277,2.613915,876.7993,0,0,1
270.1899,3.145661,767.1684,0,0,1
282.5305,3.434918,684.9338,0,0,1
136.2495,5.724723,476.0794,0,0,1
50.02,7.021128,364.0139,1,0,1
594.3489,0.9725742,629.5102,0,0,1
283.0915,4.817642,397.7187,0,0,1
172.6829,6.214556,308.6671,1,0,1
407.5559,4.095706,321.5893,0,0,1
313.0259,5.250401,253.8977,0,0,1
657.4186,10.07413,916.5056,0,0,1
56.67722,10.07413,368.6065,1,0,1
667.1458,10.07413,669.6801,0,0,1
288.4074,10.07413,399.9948,0,0,1
172.1826,10.07413,308.5085,1,0,1
540.4847,10.07413,350.3079,0,0,1
347.2123,10.07413,258.1491,0,0,1
62.08851,13.27301,372.3396,1,0,1
677.574,20.12623,675.4346,0,0,1
240.6874,14.87163,379.562,1,0,1
171.7663,13.92427,308.3766,1,0,1
539.3683,17.34421,350.0667,0,0,1
350.893,15.25215,258.6069,0,0,1
49.11654,16.15833,363.3906,1,0,1
169.9825,18.13848,349.2874,1,0,1
171.3494,17.76584,308.2446,1,0,1
616.5146,26.12625,366.7338,0,0,1
353.963,20.48762,258.9887,0,0,1
49.33772,19.20838,363.5431,1,0,1
155.0874,21.68698,342.9096,1,0,1
170.9285,21.59869,308.1112,1,0,1
263.6092,23.77768,290.4904,1,0,1
357.1354,25.78341,259.3832,0,0,1
28.35577,21.93105,384.9013,1,0,1
49.57982,22.26483,363.7102,1,0,1
147.2417,25.21824,339.5502,1,0,1
173.0525,25.52761,308.7842,1,0,1
260.9222,28.24023,289.9099,1,0,1
360.4956,31.14559,259.8011,0,0,1
-33.25275,0.0741272,335.8782,0,0,1
-28.33636,0.0741272,316.4919,0,0,1
-23.41998,0.0741272,297.1056,0,0,1
-18.50354,0.0741272,277.7193,0,0,1
-13.5871,0.0741272,258.333,0,0,1
-8.670715,0.0741272,238.9466,0,0,1
-3.754333,0.0741272,219.5603,0,0,1
1.162082,0.0741272,200.174,0,0,1
6.078473,0.0741272,180.7877,0,0,1
10.9949,0.07412732,161.4014,0,0,1
9.067492,0.0741272,372.4022,0,0,1
15.21298,0.0741272,348.1692,0,0,1
21.35848,0.07412708,323.9363,0,0,1
27.50401,0.07412708,299.7034,0,0,1
33.64949,0.0741272,275.4706,0,0,1
39.795,0.0741272,251.2377,0,0,1
45.94054,0.0741272,227.0048,0,0,1
52.08605,0.0741272,202.7719,0,0,1
58.23154,0.0741272,178.539,0,0,1
64.37708,0.07412696,154.3061,0,0,1
79.60123,0.07412744,433.2753,0,0,1
87.79523,0.0741272,400.9648,0,0,1
95.98928,0.0741272,368.6542,0,0,1
104.1833,0.0741272,336.3437,0,0,1
103.1213,0.3680496,300.6751,1,0,1
120.5713,0.0741272,271.7227,0,0,1
128.7653,0.0741272,239.4122,0,0,1
136.9593,0.0741272,207.1017,0,0,1
145.1534,0.0741272,174.7912,0,0,1
153.3474,0.0741272,142.4806,0,0,1
131.6118,2.178483,478.1623,0,0,1
232.9598,0.0741272,506.5559,0,0,1
245.2508,0.0741272,458.0901,0,0,1
257.5418,0.0741272,409.6243,0,0,1
102.703,3.612259,300.5233,1,0,1
282.1239,0.07412767,312.6927,0,0,1
291.6792,0.1291771,263.8172,0,0,1
285.8391,0.4838896,214.6967,0,0,1
294.7626,0.5388041,168.3404,0,0,1
314.9337,0.3804903,121.0034,0,0,1
134.0413,6.097602,480.2591,0,0,1
42.90559,7.256186,368.3125,1,0,1
331.2405,4.113959,509.6141,0,0,1
267.3801,4.967213,414.3253,1,0,1
102.2857,6.847618,300.3719,1,0,1
561.7256,2.1896,383.6003,0,0,1
333.7076,4.678788,270.1132,0,0,1
371.1246,4.441629,219.0475,0,0,1
368.6357,4.598232,165.1552,0,0,1
453.3701,3.930655,102.6031,0,0,1
647.1596,10.07413,923.0986,0,0,1
50.07442,10.07409,373.5271,1,0,1
338.1646,10.07413,513.7629,0,0,1
267.8009,10.07414,414.5265,1,0,1
101.8696,10.07413,300.221,1,0,1
583.8299,10.07413,389.206,0,0,1
339.0647,10.07413,270.9157,0,0,1
387.2359,10.07413,219.8694,0,0,1
376.5943,10.07413,164.812,0,0,1
462.1202,10.07413,101.4401,0,0,1
49.80677,12.97131,373.3324,1,0,1
666.7014,19.78008,710.6185,0,0,1
268.2226,15.19026,414.7279,1,0,1
101.7615,13.2951,300.1817,1,0,1
247.2296,14.71413,303.8435,1,0,1
343.979,15.57281,271.6519,0,0,1
482.5955,16.80111,224.7341,0,0,1
483.3076,16.6494,160.2108,0,0,1
470.016,16.37351,100.3906,0,0,1
41.52176,15.67826,367.3059,1,0,1
268.645,20.31552,414.9297,1,0,1
101.9526,16.5201,300.2511,1,0,1
247.2577,19.35472,303.8506,1,0,1
348.8656,21.16983,272.3839,0,0,1
491.8936,23.71068,225.2085,0,0,1
489.1666,23.33702,159.9582,0,0,1
41.64613,18.4846,367.3964,1,0,1
121.4854,20.92821,383.9312,1,0,1
160.981,21.92593,363.4838,1,0,1
102.1439,19.74918,300.3205,1,0,1
247.3115,23.99669,303.8643,1,0,1
355.5608,26.91977,273.3868,0,0,1
504.6977,30.90611,225.8617,0,0,1
41.78289,21.29435,367.4959,1,0,1
118.8239,24.42736,382.3365,1,0,1
143.8918,25.13364,355.3179,1,0,1
102.3355,22.98233,300.39,1,0,1
637.9564,44.758,402.9326,0,0,1
521.7686,38.52055,226.7325,0,0,1
-5.0401,0.0741272,294.6455,0,0,1
-4.550781,0.0741272,274.6515,0,0,1
-4.061523,0.0741272,254.6575,0,0,1
-3.572266,0.0741272,234.6635,0,0,1
-3.083008,0.0741272,214.6695,0,0,1
-2.593689,0.0741272,194.6755,0,0,1
-2.10437,0.0741272,174.6814,0,0,1
-1.615051,0.0741272,154.6874,0,0,1
-1.125793,0.0741272,134.6934,0,0,1
-0.6365356,0.0741272,114.6994,0,0,1
44.33329,0.07412696,320.8613,0,0,1
44.94487,0.0741272,295.8687,0,0,1
45.55652,0.07412696,270.8763,0,0,1
46.16811,0.07412696,245.8837,0,0,1
46.77972,0.0741272,220.8912,0,0,1
47.39135,0.0741272,195.8987,0,0,1
48.00295,0.0741272,170.9062,0,0,1
48.61456,0.0741272,145.9136,0,0,1
49.2262,0.0741272,120.9211,0,0,1
49.83775,0.0741272,95.9286,0,0,1
126.6223,0.07412767,364.5542,0,0,1
127.4378,0.0741272,331.2308,0,0,1
128.2533,0.0741272,297.9075,0,0,1
129.0688,0.07412672,264.5841,0,0,1
129.8842,0.0741272,231.2608,0,0,1
130.6997,0.0741272,197.9374,0,0,1
131.5152,0.07412672,164.614,0,0,1
132.3307,0.0741272,131.2907,0,0,1
133.1462,0.07412767,97.96729,0,0,1
133.9617,0.0741272,64.64395,0,0,1
270.5925,0.4915152,440.9978,0,0,1
274.9419,0.4273252,394.4611,0,0,1
140.0126,3.170464,301.7513,1,0,1
294.8701,0.0741272,301.9849,0,0,1
286.4654,0.2672162,250.7985,0,0,1
285.4234,0.3120623,201.7238,0,0,1
298.5398,0.0741272,152.0297,0,0,1
299.763,0.0741272,102.0447,0,0,1
300.9862,0.0741272,52.05966,0,0,1
170.8313,2.676987,50.93256,0,1,0
592.4926,2.02297,611.9167,0,0,1
283.491,5.164364,398.1258,0,0,1
142.3313,6.598927,302.5092,1,0,1
544.866,2.561114,358.3779,0,0,1
312.3246,4.911367,254.0252,0,0,1
300.8114,5.039169,202.1003,0,0,1
313.6862,4.922988,150.8886,0,0,1
375.2801,4.322409,88.85391,0,0,1
418.1014,3.911162,20.02632,0,0,1
170.2109,6.381706,51.16325,0,1,0
662.422,10.07413,649.0471,0,0,1
288.4791,10.07413,400.2641,0,0,1
172.8751,10.07413,312.4931,1,0,1
540.3316,10.07413,357.3551,0,0,1
347.1315,10.07413,258.3683,0,0,1
445.7939,10.07413,205.6483,0,0,1
475.7465,10.07413,138.6783,0,0,1
450.7664,10.07413,75.66847,0,0,1
424.6042,10.07413,18.24765,0,0,1
170.4879,10.07412,51.06025,0,1,0
671.5313,18.9257,653.8837,0,0,1
240.6972,14.55159,379.7815,1,0,1
114.253,13.26633,293.3312,1,0,1
580.5092,17.94543,366.4182,0,0,1
351.1007,15.62572,258.8635,0,0,1
455.8644,16.66008,205.8948,0,0,1
482.1201,16.906,138.1981,0,0,1
456.5136,16.63447,74.66459,0,0,1
430.5468,16.36068,16.62225,0,0,1
172.3085,13.78732,50.38319,0,1,0
174.2498,17.68657,351.2976,1,0,1
172.0483,17.62344,312.2228,1,0,1
611.6403,26.4426,373.4406,0,0,1
354.3573,21.24261,259.2699,0,0,1
484.922,23.82736,206.6058,0,0,1
489.9194,23.89352,137.6104,0,0,1
462.7597,23.31915,73.57357,0,0,1
474.0781,23.51176,4.715532,0,0,1
416.976,22.34789,-40.60559,0,0,1
156.9556,20.96868,343.8841,1,0,1
171.6304,21.38546,312.0862,1,0,1
257.4285,23.94501,293.539,1,0,1
357.7856,26.92999,259.6976,0,0,1
491.5312,30.90231,206.7676,0,0,1
521.2507,31.68837,63.35674,0,0,1
420.045,28.57597,-41.74689,0,0,1
149.1158,24.28342,340.5235,1,0,1
171.2043,25.13873,311.9469,1,0,1
257.4474,28.56941,293.5432,1,0,1
361.759,32.70798,260.1935,0,0,1
526.6699,39.1089,62.41014,0,0,1
423.7234,34.88901,-43.11487,0,0,1
13.44279,0.07412732,247.6973,0,0,1
9.436844,0.07412732,228.1026,0,0,1
5.430973,0.0741272,208.5079,0,0,1
1.42511,0.0741272,188.9131,0,0,1
-2.58075,0.0741272,169.3185,0,0,1
-6.586609,0.0741272,149.7237,0,0,1
-10.59253,0.0741272,130.129,0,0,1
-14.59845,0.0741272,110.5343,0,0,1
-18.60431,0.0741272,90.93957,0,0,1
-22.61011,0.0741272,71.34484,0,0,1
67.43694,0.0741272,262.176,0,0,1
62.42952,0.07412744,237.6826,0,0,1
57.42221,0.0741272,213.1892,0,0,1
52.41484,0.0741272,188.6958,0,0,1
47.40748,0.0741272,164.2024,0,0,1
42.40011,0.0741272,139.709,0,0,1
37.39276,0.0741272,115.2156,0,0,1
32.38541,0.0741272,90.72223,0,0,1
27.37805,0.07412708,66.22881,0,0,1
22.37073,0.0741272,41.7354,0,0,1
157.4272,0.0741272,286.3072,0,0,1
150.7507,0.0741272,253.6493,0,0,1
144.0742,0.0741272,220.9914,0,0,1
137.3978,0.0741272,188.3336,0,0,1
130.7213,0.0741272,155.6757,0,0,1
124.0448,0.07412672,123.0178,0,0,1
117.3683,0.0741272,90.35998,0,0,1
110.6918,0.0741272,57.70211,0,0,1
104.0154,0.07412696,25.04423,0,0,1
97.33893,0.0741272,-7.613586,0,0,1
337.4077,0.0741272,334.5695,0,0,1
261.6626,1.314491,273.6999,1,0,1
286.1269,0.6752167,233.782,0,0,1
287.322,0.4671774,187.6945,0,0,1
297.3488,0.0741272,138.6223,0,0,1
287.3341,0.0741272,89.63548,0,0,1
277.3194,0.0741272,40.64868,0,0,1
267.3047,0.0741272,-8.338074,0,0,1
257.29,0.07412696,-57.32495,0,0,1
152.6799,2.177128,-44.04276,1,0,0
548.9108,3.115552,391.2846,0,0,1
263.4139,5.677786,274.0165,1,0,1
346.0339,4.798545,239.176,0,0,1
308.5355,5.062635,187.6041,0,0,1
307.6871,4.97072,137.5642,0,0,1
436.3654,3.55299,59.168,0,0,1
412.185,3.668848,-1.266296,0,0,1
412.456,3.529434,-69.54529,0,0,1
419.2076,3.313479,-144.3388,0,0,1
377.0346,3.631746,-191.7278,0,0,1
585.4686,10.07413,401.0878,0,0,1
263.7645,10.07413,274.0799,1,0,1
350.3254,10.07413,239.5624,0,0,1
381.3604,10.07413,187.2937,0,0,1
317.2896,10.07413,136.5815,0,0,1
444.0601,10.07413,57.59492,0,0,1
419.1489,10.07413,-3.430603,0,0,1
419.7556,10.07413,-72.62329,0,0,1
426.1993,10.07413,-148.0961,0,0,1
439.2002,10.07413,-232.6494,0,0,1
241.5807,14.18674,308.8732,1,0,1
264.1157,14.47709,274.1434,1,0,1
354.1235,15.42751,239.9044,0,0,1
476.575,16.86681,120.2795,0,0,1
449.2414,16.72669,56.53568,0,0,1
426.2681,16.62615,-5.643188,0,0,1
143.8134,13.75993,43.73548,0,1,0
430.1472,16.95373,-150.2177,0,0,1
168.8886,14.20282,-54.71233,1,0,0
241.4739,18.29739,308.8445,1,0,1
264.4673,18.88669,274.207,1,0,1
356.932,20.8349,240.1573,0,0,1
455.2141,23.50117,55.31464,0,0,1
458.3618,23.847,-15.61755,0,0,1
145.6604,17.48506,42.95661,0,1,0
433.6017,23.90846,-152.0742,0,0,1
166.7806,18.2846,-53.32478,1,0,0
241.3671,22.40605,308.8159,1,0,1
265.2219,23.31431,274.3434,1,0,1
360.0819,26.30617,240.4409,0,0,1
463.0443,30.45446,53.71383,0,0,1
435.8918,30.45641,-79.42755,0,0,1
437.5129,30.95321,-154.176,0,0,1
163.0238,22.26445,-50.85175,1,0,0
641.8513,41.35103,416.2069,0,0,1
266.1793,27.76385,274.5164,1,0,1
363.2145,31.83736,240.723,0,0,1
168.907,25.88557,33.15399,0,1,0
461.2029,38.9433,-166.9069,0,0,1
166.4144,26.47878,-53.08366,1,0,0
21.04384,0.07412732,186.1742,0,0,1
11.81207,0.0741272,168.4323,0,0,1
2.580294,0.07412714,150.6905,0,0,1
-6.651428,0.0741272,132.9486,0,0,1
-15.88318,0.0741272,115.2067,0,0,1
-25.11493,0.0741272,97.4648,0,0,1
-34.34674,0.0741272,79.72292,0,0,1
-43.57855,0.0741272,61.98104,0,0,1
-52.8103,0.0741272,44.23915,0,0,1
-62.04211,0.0741272,26.49726,0,0,1
76.93827,0.0741272,185.2722,0,0,1
65.39856,0.0741272,163.0948,0,0,1
53.85887,0.07412696,140.9174,0,0,1
42.3191,0.0741272,118.7401,0,0,1
30.77939,0.0741272,96.56273,0,0,1
19.23968,0.07412708,74.38536,0,0,1
7.699964,0.0741272,52.208,0,0,1
-3.839722,0.0741272,30.03065,0,0,1
-15.37939,0.0741272,7.853255,0,0,1
-26.91913,0.07412708,-14.32404,0,0,1
170.0957,0.0741272,183.7687,0,0,1
154.7094,0.07412672,154.1989,0,0,1
139.3231,0.0741272,124.6291,0,0,1
123.9368,0.0741272,95.05924,0,0,1
108.5505,0.0741272,65.48946,0,0,1
93.16419,0.07412696,35.91963,0,0,1
77.77792,0.0741272,6.349821,0,0,1
62.39162,0.0741272,-23.21985,0,0,1
47.00531,0.0741272,-52.78973,0,0,1
31.61905,0.07412732,-82.35962,0,0,1
289.8401,1.265128,181.8361,0,0,1
303.1431,0.637475,139.4139,0,0,1
310.2516,0.07412672,92.05232,0,0,1
287.1721,0.0741272,47.69759,0,0,1
264.0927,0.0741272,3.342912,0,0,1
241.0133,0.0741272,-41.01184,0,0,1
154.7851,1.576,-44.04276,1,0,0
119.9586,1.958829,-69.50438,1,0,0
-15.88794,5.087711,8.347531,1,0.92,0.016
148.6955,0.0741272,-218.4307,0,0,1
370.177,4.950979,180.5396,0,0,1
307.5776,5.314424,138.9722,0,0,1
378.7055,4.406656,79.0059,0,0,1
414.2604,3.776529,10.82376,0,0,1
168.4984,6.098436,41.53736,0,1,0
414.2977,3.120733,-131.1783,0,0,1
373.463,3.224649,-187.143,0,0,1
117.5763,6.046452,-67.58899,1,0,0
-16.21834,7.585334,8.668715,1,0.92,0.016
198.1524,4.370074,-275.9115,0,0,1
377.8055,10.07413,180.4164,0,0,1
317.7907,10.07413,137.9549,0,0,1
448.1646,10.07413,65.7679,0,0,1
420.4885,10.07413,9.016707,0,0,1
168.0006,10.07412,41.73624,0,1,0
420.7139,10.07413,-134.5169,0,0,1
443.7732,10.07413,-233.1532,0,0,1
115.4719,10.07413,-65.89702,1,0,0
-16.21839,10.07413,8.668733,1,0.92,0.016
202.5317,10.07413,-281.0012,0,0,1
484.3706,16.21879,178.6966,0,0,1
478.0179,16.42416,121.9953,0,0,1
452.9265,16.4653,64.86034,0,0,1
425.3377,16.48483,7.60977,0,0,1
169.3984,14.05947,41.17775,0,1,0
424.2759,17.14,-136.3704,0,0,1
170.7996,14.51363,-54.52249,1,0,0
117.4254,14.09991,-67.46773,1,0,0
-14.71831,12.58296,7.210542,1,0.92,0.016
206.9744,15.90377,-286.1648,0,0,1
545.9756,23.46561,177.7023,0,0,1
486.8725,22.93943,121.1133,0,0,1
457.0658,22.9372,64.07147,0,0,1
452.5818,23.45186,-0.2948608,0,0,1
170.2415,18.06289,40.84091,0,1,0
426.8078,24.26296,-137.6877,0,0,1
169.5272,18.92287,-53.68982,1,0,0
112.3546,17.99807,-63.39066,1,0,0
96.03912,18.05078,-100.4546,1,0,0
461.6412,29.50257,63.19945,0,0,1
463.3557,30.47074,-3.420959,0,0,1
171.5047,22.09784,40.33622,0,1,0
428.9425,31.42957,-138.7985,0,0,1
168.9249,23.32576,-53.29569,1,0,0
112.8802,21.97989,-63.81331,1,0,0
95.74654,22.02738,-100.1702,1,0,0
173.4094,26.18736,39.5752,0,1,0
430.9004,38.63634,-139.8173,0,0,1
169.8215,27.78561,-53.88241,1,0,0
112.9089,25.94993,-63.83632,1,0,0
95.89233,26.01958,-100.312,1,0,0
10.60717,0.0741272,122.1739,0,0,1
-3.327209,0.07412815,107.827,0,0,1
-17.26141,0.0741272,93.48003,0,0,1
-31.1958,0.0741272,79.1331,0,0,1
-45.13013,0.0741272,64.78619,0,0,1
-59.06445,0.0741272,50.43925,0,0,1
-72.99884,0.0741272,36.0923,0,0,1
-86.93311,0.0741272,21.74538,0,0,1
-100.8674,0.0741272,7.398441,0,0,1
-146.5407,3.691839,64.22307,0,1,0
63.89243,0.0741272,105.2717,0,0,1
46.4745,0.0741272,87.33807,0,0,1
29.05655,0.07412708,69.40443,0,0,1
11.63866,0.0741272,51.47073,0,0,1
-5.779175,0.0741272,33.53708,0,0,1
-23.19714,0.0741272,15.60344,0,0,1
-40.61499,0.0741272,-2.330261,0,0,1
-58.0329,0.07412732,-20.26398,0,0,1
-75.45087,0.0741272,-38.19757,0,0,1
-146.5493,4.969076,64.24251,0,1,0
152.7012,0.0741272,77.10145,0,0,1
129.4772,0.07412672,53.18993,0,0,1
106.2534,0.0741272,29.27836,0,0,1
83.02947,0.07412744,5.366806,0,0,1
59.80559,0.07412708,-18.54474,0,0,1
36.58172,0.0741272,-42.45624,0,0,1
13.35783,0.07412708,-66.36786,0,0,1
-9.866028,0.0741272,-90.27936,0,0,1
-33.0899,0.0741272,-114.191,0,0,1
-146.1184,6.21586,63.27607,0,1,0
330.3186,0.0741272,20.76089,0,0,1
271.577,0.5541472,-5.271366,1,0.92,0.016
260.6469,0.0741272,-50.97369,0,0,1
159.539,1.621296,-44.04276,1,0,0
122.173,1.82256,-68.07155,1,0,0
-15.33686,4.85498,7.969164,1,0.92,0.016
121.3036,0.0741272,-194.4431,0,0,1
86.46777,0.0741272,-230.3104,0,0,1
51.61525,0.07478571,-266.1477,0,0,1
-145.8246,7.488552,62.61723,0,1,0
413.0087,4.298209,-5.468506,0,0,1
165.9677,6.374424,38.17736,0,1,0
414.5305,3.412967,-130.9608,0,0,1
372.4766,3.362126,-181.557,0,0,1
119.8183,5.978261,-66.20169,1,0,0
-15.93725,7.472923,8.552282,1,0.92,0.016
190.0093,4.013323,-275.9608,0,0,1
120.2892,4.488986,-279.4731,0,0,1
60.13795,4.906796,-281.437,0,0,1
-145.7132,8.778795,62.36741,0,1,0
419.6516,10.07413,-7.575623,0,0,1
267.8303,10.07413,-3.729884,1,0.92,0.016
420.5919,10.07413,-134.1114,0,0,1
453.5589,10.07413,-233.9197,0,0,1
117.6742,10.07413,-64.49905,1,0,0
-15.93726,10.07413,8.552284,1,0.92,0.016
194.4803,10.07413,-281.2656,0,0,1
124.2589,10.07413,-285.2436,0,0,1
-120.1361,10.07416,41.96543,0,1,0
-145.4285,10.07412,61.72905,0,1,0
427.5544,15.98654,-10.0824,0,0,1
145.2116,13.56542,46.71663,0,1,0
424.0131,16.83765,-135.8897,0,0,1
463.9979,17.85444,-240.6612,0,0,1
119.58,14.16697,-66.01244,1,0,0
-14.2996,12.69816,6.961744,1,0.92,0.016
199.0355,16.27429,-286.6701,0,0,1
127.112,15.77731,-289.3907,0,0,1
-119.988,11.69798,41.69963,0,1,0
-145.2812,11.37929,61.39874,0,1,0
171.5364,17.58533,35.88634,0,1,0
426.4488,23.65376,-137.1557,0,0,1
118.2902,18.22703,-64.98823,1,0,0
96.01059,18.39771,-100.1761,1,0,0
129.4564,21.56161,-292.7987,0,0,1
-144.8874,12.70241,60.51579,0,1,0
170.4243,21.30742,36.34388,0,1,0
428.5666,30.51217,-138.2565,0,0,1
177.7491,23.39109,-55.80277,1,0,0
113.8011,22.13235,-61.42336,1,0,0
95.76338,22.54915,-99.93604,1,0,0
131.6344,27.41841,-295.9648,0,0,1
-144.4626,14.04561,59.56329,0,1,0
169.6727,25.02169,36.65309,0,1,0
430.3818,37.40322,-139.2,0,0,1
115.128,26.21921,-62.47706,1,0,0
96.01383,26.72146,-100.1792,1,0,0
133.9562,33.3605,-299.3396,0,0,1
-13.24878,0.0741272,70.7395,0,0,1
-30.34363,0.0741272,60.35844,0,0,1
-47.43848,0.0741272,49.97736,0,0,1
-64.53333,0.0741272,39.59629,0,0,1
-81.62817,0.0741272,29.21523,0,0,1
-98.72296,0.0741272,18.83414,0,0,1
-142.0416,3.098206,63.28885,0,1,0
-154.9095,3.233587,58.643,0,1,0
-150.0075,0.0741272,-12.30902,0,0,1
-167.1024,0.07412732,-22.69006,0,0,1
34.07236,0.0741272,40.97873,0,0,1
12.7038,0.0741272,28.0024,0,0,1
-8.664673,0.0741272,15.02606,0,0,1
-30.03326,0.0741272,2.049729,0,0,1
-51.40179,0.0741272,-10.92651,0,0,1
-72.77032,0.0741272,-23.90295,0,0,1
-142.0292,4.492254,63.26302,0,1,0
-155.0156,4.613914,58.9353,0,1,0
-141.7596,0.8179182,-44.04276,1,0,0
-163.2695,1.2087,-45.6751,1,0,0
112.941,0.07412726,-8.622498,0,0,1
84.44968,0.07412732,-25.92426,0,0,1
55.95825,0.07412744,-43.22601,0,0,1
-30.12718,2.578208,2.151877,1,0.92,0.016
-1.024536,0.0741272,-77.82959,0,0,1
-29.51593,0.07412744,-95.13147,0,0,1
-141.5025,5.851273,62.16151,0,1,0
-155.1032,5.986515,59.17649,0,1,0
-137.9046,2.691616,-58.87457,1,0,0
-160.6196,2.976313,-61.56606,1,0,0
270.6784,0.0741272,-107.825,0,0,1
132.0303,2.302157,-61.68755,1,0,0
106.4369,2.105583,-88.7283,1,0,0
-31.25247,5.109465,3.376519,1,0.92,0.016
99.73006,0.07412744,-211.6357,0,0,1
56.99294,0.07412696,-237.5884,0,0,1
14.25583,0.0741272,-263.541,0,0,1
-155.1643,7.35256,59.34477,0,1,0
-137.5979,5.129099,-60.05467,1,0,0
-160.6196,5.342251,-61.56606,1,0,0
311.429,4.643554,-133.4534,0,0,1
129.4553,6.21805,-59.75216,1,0,0
103.8975,6.122604,-86.43922,1,0,0
-31.36984,7.593496,3.504283,1,0.92,0.016
152.485,4.201463,-281.6964,0,0,1
83.16232,4.569953,-280.6823,0,0,1
22.61897,4.881242,-281.0291,0,0,1
-154.3454,8.689819,57.08986,0,1,0
-137.4973,7.59778,-60.44177,1,0,0
-160.6196,7.708189,-61.56606,1,0,0
482.9351,10.07413,-241.3153,0,0,1
127.9469,10.07413,-58.61835,1,0,0
101.9457,10.07413,-84.67984,1,0,0
-31.36984,10.07413,3.504287,1,0.92,0.016
156.4284,10.07413,-286.9333,0,0,1
86.47775,10.07413,-286.1419,0,0,1
25.18263,10.07413,-286.3898,0,0,1
-154.3735,10.07412,57.16708,0,1,0
-171.9812,10.07412,72.23338,0,1,0
-160.6196,10.07413,-61.56606,1,0,0
489.1302,17.38231,-245.2114,0,0,1
129.4407,13.93004,-59.74115,1,0,0
100.6229,13.98342,-83.48753,1,0,0
-30.80203,12.56299,2.886345,1,0.92,0.016
159.8277,16.06825,-291.4477,0,0,1
89.58226,15.70199,-291.2542,0,0,1
27.70486,15.38431,-291.664,0,0,1
-154.2893,11.46003,56.93536,0,1,0
-139.0213,12.49245,-54.57825,1,0,0
-162.0533,12.35914,-52.96861,1,0,0
493.7233,24.78755,-248.1001,0,0,1
128.4787,17.7636,-59.01812,1,0,0
99.89674,17.874,-82.83293,1,0,0
-29.66489,15.08481,1.648777,1,0.92,0.016
-153.84,12.87177,55.69806,0,1,0
-139.5356,14.8716,-52.59935,1,0,0
-162.1941,14.62825,-52.12397,1,0,0
498.5572,32.29749,-251.1402,0,0,1
123.5809,21.43767,-55.33681,1,0,0
99.55846,21.76084,-82.528,1,0,0
-28.58927,17.63691,0.4781982,1,0.92,0.016
-153.5047,14.29948,54.77478,0,1,0
-139.3389,17.2928,-53.35617,1,0,0
-162.2881,16.88939,-51.56018,1,0,0
124.7992,25.28212,-56.2525,1,0,0
99.59219,25.65815,-82.55843,1,0,0
-29.7056,20.09312,1.693082,1,0.92,0.016
-153.194,15.74363,53.91916,0,1,0
-139.3474,19.69774,-53.32373,1,0,0
-162.3718,19.14225,-51.05847,1,0,0
-44.59973,0.0741272,31.48886,0,0,1
-63.58057,0.0741272,25.18588,0,0,1
-82.5614,0.0741272,18.88296,0,0,1
-101.5423,0.0741272,12.57995,0,0,1
-146.4105,3.230713,64.20219,0,1,0
-139.504,0.0741272,-0.02593994,0,0,1
-158.4848,0.0741272,-6.328918,0,0,1
-177.4657,0.0741272,-12.63184,0,0,1
-196.4465,0.0741272,-18.93481,0,0,1
-215.4274,0.07412732,-25.23779,0,0,1
-20.84699,0.8709529,7.682008,1,0.92,0.016
-28.84235,0.0741272,-15.96326,0,0,1
-52.5683,0.07412732,-23.84204,0,0,1
-76.29443,0.0741272,-31.7207,0,0,1
-146.5417,4.61219,64.49574,0,1,0
-157.4539,4.352407,54.02881,0,1,0
-150.0139,0.5356635,-44.04276,1,0,0
-171.1987,0.0741272,-63.23541,0,0,1
-194.9247,0.07412744,-71.11426,0,0,1
-218.6508,0.0741272,-78.99298,0,0,1
-22.23147,3.224344,9.069646,1,0.92,0.016
29.0548,0.07412708,-84.54517,0,0,1
-2.579895,0.0741272,-95.05017,0,0,1
-34.21466,0.0741272,-105.5551,0,0,1
-146.0324,5.940414,63.35626,0,1,0
-157.6639,5.802826,54.66124,0,1,0
-146.078,2.384156,-61.56606,1,0,0
-171.1693,2.567082,-63.47321,1,0,0
-194.3032,1.961401,-92.42872,1,0,0
-224.0232,0.0741272,-168.5847,0,0,1
-23.21005,5.532389,10.05043,1,0.92,0.016
144.849,0.0741272,-221.709,0,0,1
97.39693,0.0741272,-237.4664,0,0,1
49.94478,0.0741272,-253.2239,0,0,1
-145.7723,7.305626,62.77411,0,1,0
-157.608,7.223057,54.49264,0,1,0
-146.078,4.94748,-61.56606,1,0,0
-171.4365,5.112074,-61.31527,1,0,0
-194.5103,4.801762,-85.3261,1,0,0
-230.0807,1.528237,-269.6025,0,0,1
-23.21005,7.803258,10.05042,1,0.92,0.016
191.0152,4.409642,-276.3951,0,0,1
126.6485,4.586486,-279.1352,0,0,1
65.50785,4.765921,-280.5313,0,0,1
-145.5898,8.685423,62.36572,0,1,0
-157.2785,8.638123,53.50054,0,1,0
-146.078,7.510805,-61.56606,1,0,0
-171.6503,7.610153,-59.58948,1,0,0
-194.6047,7.468952,-82.09028,1,0,0
-230.4172,5.748991,-275.2136,0,0,1
-23.21003,10.07413,10.05043,1,0.92,0.016
195.1168,10.07413,-281.2536,0,0,1
130.4044,10.07413,-284.4854,0,0,1
68.81689,10.07413,-286.3375,0,0,1
-145.2805,10.07411,61.67384,0,1,0
-118.1986,10.07413,-64.18535,1,0,0
-146.078,10.07413,-61.56606,1,0,0
-171.7908,10.07413,-58.4547,1,0,0
-194.6824,10.07413,-79.42408,1,0,0
-230.666,10.07413,-279.3616,0,0,1
-22.72634,12.35112,9.565614,1,0.92,0.016
199.3382,15.85841,-286.254,0,0,1
133.0087,15.66779,-288.1951,0,0,1
72.29703,15.51678,-292.4438,0,0,1
-145.1028,11.47469,61.27609,0,1,0
-117.3771,12.77624,-66.65944,1,0,0
-146.078,12.63745,-61.56606,1,0,0
-172.1521,12.49806,-55.53726,1,0,0
-194.7421,12.63416,-77.37913,1,0,0
-230.9224,14.47764,-283.6401,0,0,1
-21.66227,14.65507,8.499135,1,0.92,0.016
135.075,21.33035,-291.1386,0,0,1
-144.6799,12.89589,60.32989,0,1,0
-117.8422,15.44883,-65.25867,1,0,0
-146.078,15.20078,-61.56606,1,0,0
-172.2814,14.90136,-54.49298,1,0,0
-194.7887,15.16353,-75.77914,1,0,0
-231.2293,18.97633,-288.756,0,0,1
-19.4139,17.03095,6.24567,1,0.92,0.016
136.9908,27.05428,-293.8677,0,0,1
-144.0417,14.35347,58.90173,0,1,0
-117.8422,18.13619,-65.25868,1,0,0
-146.078,17.7641,-61.56606,1,0,0
-172.3696,17.29387,-53.78082,1,0,0
-194.8213,17.67613,-74.66244,1,0,0
-20.76905,19.28125,7.603885,1,0.92,0.016
138.9964,32.84806,-296.7245,0,0,1
-117.8312,20.82494,-65.29181,1,0,0
-146.078,20.32742,-61.56606,1,0,0
-172.2739,19.731,-54.55359,1,0,0
-194.8428,20.18193,-73.92679,1,0,0
-86.56122,0.07412726,-1.398987,0,0,1
-106.4946,0.07412726,-3.029663,0,0,1
-152.3276,3.477221,61.5107,0,1,0
-146.3615,0.0741272,-6.290527,0,0,1
-166.2949,0.07412708,-7.921143,0,0,1
-186.2283,0.0741272,-9.551697,0,0,1
-206.1618,0.0741272,-11.18225,0,0,1
-226.0952,0.0741272,-12.81274,0,0,1
-246.0286,0.0741272,-14.4433,0,0,1
-258.8344,1.197872,7.059192,1,0.92,0.016
-57.56812,0.07412696,-49.19452,0,0,1
-82.48486,0.0741272,-51.23254,0,0,1
-152.405,4.804737,61.70853,0,1,0
-134.4733,0.3810147,-47.78749,1,0,0
-159.674,0.6124837,-44.04276,1,0,0
-182.152,0.0741272,-59.38531,0,0,1
-207.0688,0.0741272,-61.42346,0,0,1
-231.9856,0.07412744,-63.46155,0,0,1
-256.9024,0.07412696,-65.49976,0,0,1
-258.5144,3.01348,8.097651,1,0.92,0.016
-9.246277,0.07412672,-128.8535,0,0,1
-42.46863,0.0741272,-131.5709,0,0,1
-152.4804,6.128027,61.90102,0,1,0
-130.1693,2.344563,-62.81085,1,0,0
-156.462,2.446092,-61.56606,1,0,0
-181.2599,2.245809,-70.29282,1,0,0
-208.5805,0.0741272,-145.1588,0,0,1
-241.803,0.0741272,-147.8762,0,0,1
-275.0253,0.0741272,-150.5938,0,0,1
-258.198,4.808568,9.124368,1,0.92,0.016
76.41991,0.4527493,-270.075,0,0,1
27.55872,0.4908352,-272.1611,0,0,1
-152.501,7.444481,61.95381,0,1,0
-131.0187,4.981566,-59.84614,1,0,0
-156.462,4.98877,-61.56606,1,0,0
-181.4487,4.901587,-67.98354,1,0,0
-210.8672,0.8865094,-271.8143,0,0,1
-255.1085,1.148609,-262.2843,0,0,1
-298.455,1.252764,-260.6049,0,0,1
-258.0985,6.570033,9.447491,1,0.92,0.016
83.28228,5.145094,-281.3876,0,0,1
32.37774,5.182127,-281.836,0,0,1
-151.8312,8.741697,60.24253,0,1,0
-131.5161,7.545557,-58.11,1,0,0
-156.462,7.531448,-61.56606,1,0,0
-181.6175,7.508557,-65.92046,1,0,0
-210.982,5.416987,-278.178,0,0,1
-255.7993,5.552724,-268.2249,0,0,1
-299.5538,5.61292,-265.7643,0,0,1
-258.0985,8.32208,9.447488,1,0.92,0.016
86.20504,10.07413,-286.2058,0,0,1
35.14537,10.07413,-287.3925,0,0,1
-151.8042,10.07412,60.17352,0,1,0
-131.8494,10.07413,-56.94633,1,0,0
-156.462,10.07413,-61.56606,1,0,0
-181.7613,10.07413,-64.16241,1,0,0
-211.0668,10.07413,-282.8758,0,0,1
-256.311,10.07413,-272.6254,0,0,1
-300.2735,10.07413,-269.1436,0,0,1
-258.0985,10.07413,9.44749,1,0.92,0.016
88.9343,15.10063,-290.705,0,0,1
38.18838,15.08713,-293.5017,0,0,1
-151.5836,11.41305,59.60985,0,1,0
-132.2542,12.57642,-55.53343,1,0,0
-156.9728,12.58862,-58.77935,1,0,0
-181.4984,12.65431,-67.37656,1,0,0
-211.1476,14.8226,-287.3557,0,0,1
-256.8318,14.68317,-277.1028,0,0,1
-300.93,14.59862,-272.2264,0,0,1
-258.1924,11.82914,9.142697,1,0.92,0.016
-151.48,12.75743,59.34521,0,1,0
-132.6361,15.05151,-54.2004,1,0,0
-156.462,15.15949,-61.56606,1,0,0
-181.6945,15.18638,-64.97903,1,0,0
-211.2216,19.65259,-291.4507,0,0,1
-257.5695,19.41745,-283.4456,0,0,1
-301.6298,19.18746,-275.512,0,0,1
-258.5097,13.60416,8.112922,1,0.92,0.016
-151.1612,14.12421,58.53082,0,1,0
-132.8175,17.52082,-53.56705,1,0,0
-156.462,17.70217,-61.56606,1,0,0
-181.6418,17.76192,-65.6241,1,0,0
-211.3019,24.57458,-295.8975,0,0,1
-302.5898,23.87656,-280.0198,0,0,1
-258.8306,15.39953,7.071332,1,0.92,0.016
-150.8195,15.51016,57.65758,0,1,0
-132.9339,19.98648,-53.1608,1,0,0
-156.462,20.24484,-61.56606,1,0,0
-181.6811,20.30523,-65.14366,1,0,0
-259.1553,17.21561,6.017735,1,0.92,0.016
-137.1168,0.07412732,-24.04138,0,0,1
-156.8394,0.07412732,-20.72174,0,0,1
-176.562,0.0741272,-17.4021,0,0,1
-196.2846,0.07412708,-14.08258,0,0,1
-216.0071,0.0741272,-10.76282,0,0,1
-235.7298,0.0741272,-7.443237,0,0,1
-253.8664,0.3738275,1.687662,1,0.92,0.016
-275.175,0.07412714,-0.8040771,0,0,1
-294.8975,0.0741272,2.51554,0,0,1
-314.6201,0.0741272,5.835116,0,0,1
-124.01,0.4712588,-66.88287,1,0,0
-151.7772,1.187836,-44.04276,1,0,0
-170.7818,0.2936589,-63.51292,1,0,0
-194.7224,0.0741272,-65.04877,0,0,1
-219.3755,0.0741272,-60.89917,0,0,1
-244.0287,0.0741272,-56.74976,0,0,1
-253.3494,2.392043,3.582035,1,0.92,0.016
-293.3353,0.07412744,-48.45074,0,0,1
-317.9885,0.0741272,-44.30121,0,0,1
-342.6418,0.0741272,-40.15173,0,0,1
-124.2345,2.892564,-66.14912,1,0,0
-147.9734,2.909942,-61.56606,1,0,0
-170.8351,2.751069,-63.08844,1,0,0
-193.9389,1.821903,-90.60753,1,0,0
-224.9895,0.0741272,-144.4598,0,0,1
-257.8605,0.0741272,-138.9271,0,0,1
-252.8427,4.370012,5.438626,1,0.92,0.016
-320.433,0.3359175,-119.5462,0,0,1
-351.4204,0.4023767,-112.0841,0,0,1
-388.6602,0.1107507,-115.6736,0,0,1
-125.0895,5.338698,-63.35452,1,0,0
-147.9734,5.298005,-61.56606,1,0,0
-171.0986,5.232675,-60.98615,1,0,0
-194.1145,4.68503,-84.87962,1,0,0
-233.2414,0.9576535,-267.2842,0,0,1
-278.0912,0.9697418,-259.1226,0,0,1
-252.5857,6.290814,6.380549,1,0.92,0.016
-361.1212,1.341491,-226.2984,0,0,1
-404.3964,1.332065,-219.4925,0,0,1
-458.1806,0.9509211,-229.765,0,0,1
-125.8154,7.728605,-60.98188,1,0,0
-147.9734,7.686067,-61.56606,1,0,0
-171.3023,7.669087,-59.36121,1,0,0
-194.2165,7.412219,-81.55262,1,0,0
-233.683,5.450336,-273.8575,0,0,1
-279.6337,5.429003,-268.2867,0,0,1
-252.5857,8.18247,6.380546,1,0.92,0.016
-368.2861,5.510541,-245.0967,0,0,1
-413.1351,5.513873,-237.21,0,0,1
-462.1989,5.440826,-236.3594,0,0,1
-126.2444,10.07413,-59.57943,1,0,0
-147.9734,10.07413,-61.56606,1,0,0
-171.441,10.07413,-58.25445,1,0,0
-194.2999,10.07413,-78.83091,1,0,0
-233.9863,10.07413,-278.3704,0,0,1
-280.3622,10.07413,-272.6151,0,0,1
-252.5857,10.07413,6.380531,1,0.92,0.016
-371.5417,10.07413,-253.6384,0,0,1
-416.4493,10.07413,-243.9297,0,0,1
-464.0739,10.07413,-239.4366,0,0,1
-127.3714,12.37208,-55.89577,1,0,0
-147.9734,12.46219,-61.56606,1,0,0
-171.8059,12.44039,-55.34394,1,0,0
-194.3638,12.68888,-76.74551,1,0,0
-234.3016,14.78975,-283.0652,0,0,1
-281.0455,14.80431,-276.6744,0,0,1
-252.7594,11.97235,5.744009,1,0.92,0.016
-374.3312,14.80415,-260.9574,0,0,1
-418.866,14.75848,-248.8295,0,0,1
-465.6156,14.76839,-241.9667,0,0,1
-127.7759,14.6453,-54.57378,1,0,0
-147.9734,14.85025,-61.56606,1,0,0
-171.9324,14.78715,-54.33413,1,0,0
-194.4129,15.27221,-75.14409,1,0,0
-234.7081,19.62602,-289.1146,0,0,1
-281.945,19.64288,-282.0187,0,0,1
-253.2625,13.9086,3.900542,1,0.92,0.016
-421.6619,19.56391,-254.4982,0,0,1
-467.124,19.51649,-244.4421,0,0,1
-128.0756,16.90336,-53.59409,1,0,0
-147.9734,17.23831,-61.56606,1,0,0
-172.0241,17.12249,-53.60277,1,0,0
-194.4479,17.83763,-74.00182,1,0,0
-253.7758,15.88403,2.019782,1,0.92,0.016
-468.7347,24.3239,-247.0856,0,0,1
-127.807,19.21265,-54.47192,1,0,0
-147.9734,19.62637,-61.56606,1,0,0
-171.9179,19.50465,-54.44997,1,0,0
-194.4692,20.39826,-73.3087,1,0,0
-254.1259,17.8736,0.7367835,1,0.92,0.016
-470.7766,29.21955,-250.4365,0,0,1
-203.3333,0.0741272,-33.82269,0,0,1
-221.1898,0.0741272,-24.81464,0,0,1
-239.0462,0.0741272,-15.8064,0,0,1
-254.2302,0.5656751,2.864603,1,0.92,0.016
-274.7591,0.0741272,2.209917,0,0,1
-292.6155,0.0741272,11.21812,0,0,1
-310.472,0.0741272,20.2263,0,0,1
-310.3865,1.500414,52.13321,0,0,0
-346.1849,0.0741272,38.24267,0,0,1
-355.287,0.616168,54.97655,0,0,0
-203.5332,0.07412744,-89.72418,0,0,1
-225.8538,0.0741272,-78.46387,0,0,1
-248.1743,0.0741272,-67.20361,0,0,1
-253.7197,2.542475,4.710245,1,0.92,0.016
-292.8154,0.0741272,-44.68317,0,0,1
-315.136,0.0741272,-33.42291,0,0,1
-337.4566,0.0741272,-22.16266,0,0,1
-312.6203,3.073102,49.28234,0,0,0
-332.2293,2.851317,52.96453,0,0,0
-354.3218,2.555572,55.8284,0,0,0
-203.8664,0.07412672,-182.8929,0,0,1
-233.6271,0.0741272,-167.8794,0,0,1
-263.3879,0.07412767,-152.8658,0,0,1
-253.2193,4.480618,6.519828,1,0.92,0.016
-321.204,0.215795,-118.4095,0,0,1
-348.3909,0.3591483,-99.34241,0,0,1
-375.4747,0.4608016,-81.88397,0,0,1
-313.0105,4.804744,48.78423,0,0,0
-331.6593,4.68082,53.5659,0,0,0
-355.0236,4.409142,55.20908,0,0,0
-204.1907,1.785305,-273.5736,0,0,1
-242.1528,1.579511,-265.9476,0,0,1
-282.7947,1.281407,-262.139,0,0,1
-252.9943,6.361673,7.333255,1,0.92,0.016
-362.3056,1.22561,-225.1523,0,0,1
-408.3422,0.9353924,-218.1807,0,0,1
-467.6617,0.2489624,-226.6969,0,0,1
-313.0069,6.561317,48.78884,0,0,0
-331.1373,6.493134,54.11656,0,0,0
-354.2486,6.31665,55.89295,0,0,0
-204.2106,5.879871,-279.1465,0,0,1
-242.6486,5.77366,-271.6515,0,0,1
-283.8796,5.61835,-268.2469,0,0,1
-252.9943,8.217901,7.333255,1,0.92,0.016
-369.6691,5.445968,-244.2755,0,0,1
-417.9729,5.290939,-237.2711,0,0,1
-472.813,5.066093,-234.7891,0,0,1
-312.29,8.329124,49.70385,0,0,0
-330.5681,8.291574,54.71709,0,0,0
-355.0235,8.185793,55.20908,0,0,0
-204.2261,10.07413,-283.4788,0,0,1
-243.0102,10.07413,-275.8117,0,0,1
-284.5386,10.07413,-271.9583,0,0,1
-252.9943,10.07413,7.333257,1,0.92,0.016
-373.1521,10.07413,-253.321,0,0,1
-421.3976,10.07413,-244.0595,0,0,1
-475.2577,10.07413,-238.6295,0,0,1
-310.4983,10.07413,51.99056,0,0,0
-330.0038,10.07415,55.31231,0,0,0
-355.0939,10.07413,55.14701,0,0,0
-204.2394,14.34041,-287.1996,0,0,1
-243.3685,14.45178,-279.9333,0,0,1
-285.152,14.5996,-275.4113,0,0,1
-253.1543,11.93624,6.754484,1,0.92,0.016
-375.9194,14.87537,-260.5079,0,0,1
-424.0109,14.99137,-249.24,0,0,1
-477.3069,15.16543,-241.8484,0,0,1
-311.6735,11.80933,50.49067,0,0,0
-329.5342,11.84231,55.80775,0,0,0
-354.9225,11.96121,55.29819,0,0,0
-203.5765,15.29062,-101.8264,1,0,0
-243.8406,18.93063,-285.3628,0,0,1
-285.8647,19.20317,-279.425,0,0,1
-253.6516,13.83495,4.956366,1,0.92,0.016
-426.9825,20.04057,-255.1304,0,0,1
-479.2584,20.32904,-244.9136,0,0,1
-316.76,13.70628,43.99893,0,0,0
-330.7584,13.64458,54.51632,0,0,0
-353.5359,13.81395,56.52192,0,0,0
-203.5653,17.81429,-98.67441,1,0,0
-287.4146,24.02237,-288.1517,0,0,1
-254.1588,15.77133,3.122573,1,0.92,0.016
-481.4152,25.5764,-248.3019,0,0,1
-317.3522,15.5506,43.24312,0,0,0
-331.83,15.47456,53.3859,0,0,0
-356.1454,15.7808,54.21909,0,0,0
-203.5594,20.33615,-97.04776,1,0,0
-254.5786,17.73217,1.604636,1,0.92,0.016
-484.7595,30.99169,-253.5552,0,0,1
-546.3571,31.9398,-249.0289,0,0,1
-332.9318,17.33604,52.22351,0,0,0
-358.3791,17.79366,52.24781,0,0,0
-290.3876,0.0741272,-15.84247,0,0,1
-303.3234,0.0741272,-0.5892334,0,0,1
-316.2593,0.0741272,14.6641,0,0,1
-311.0103,1.509834,52.86936,0,0,0
-342.131,0.0741272,45.17072,0,0,1
-355.0669,0.0741272,60.42406,0,0,1
-366.8356,0.1446619,76.48225,0,0,1
-372.9918,0.5195589,95.3339,0,0,1
-393.8744,0.0741272,106.1841,0,0,1
-404.3575,0.1941977,122.258,0,0,1
-312.3511,0.0741272,-67.2489,0,0,1
-328.5209,0.0741272,-48.18219,0,0,1
-344.6907,0.0741272,-29.11554,0,0,1
-311.6104,3.184793,52.11195,0,0,0
-333.4005,2.574458,54.21486,0,0,0
-362.958,1.660237,53.7318,0,0,0
-409.37,0.07412815,47.15113,0,0,1
-425.5398,0.0741272,66.21777,0,0,1
-441.7097,0.0741272,85.28442,0,0,1
-444.0427,0.6160097,108.9803,1,0,0
-340.8583,0.6272297,-133.9706,0,0,1
-367.0883,0.2782221,-121.0281,0,0,1
